ncols         195
nrows         111
xllcorner     -122.866805784
yllcorner     44.108193908
cellsize      0.0083333333
NODATA_value  -9999
58 55 56 53 55 57 59 60 61 66 70 73 80 87 91 96 104 125 147 180 209 231 237 229 247 236 242 236 232 236 281 314 308 278 320 383 415 381 475 541 559 595 525 462 420 332 359 500 620 690 716 692 705 714 755 783 839 898 955 1010 1025 859 794 787 905 1096 1231 1191 1223 1189 1221 1223 1188 1262 1270 1222 1047 925 943 942 1138 1136 1272 1165 899 947 1007 1160 1253 1050 938 862 821 814 693 569 507 529 561 566 595 663 739 814 884 899 750 665 679 810 873 934 976 1018 959 969 955 1116 1135 1063 1039 1070 1212 1278 1283 1297 1274 1286 1306 1306 1319 1282 1231 1251 1278 1256 1278 1298 1283 1258 1224 1210 1185 1143 1137 1122 1143 1140 1138 1130 1137 1147 1165 1094 1000 934 900 915 908 892 884 867 808 820 823 854 873 875 860 850 835 823 808 793 794 796 797 802 812 840 907 958 985 1010 982 959 947 929 887 816 853 872 881 964 1069
56 55 56 52 56 59 60 63 64 68 72 77 84 94 106 107 138 126 130 137 164 181 212 241 261 278 281 340 335 280 245 254 262 314 353 452 493 426 448 504 585 622 571 474 424 300 373 464 542 559 611 702 750 786 818 846 882 947 1024 1106 1152 1094 1064 951 847 941 1096 1155 1160 1105 1042 1135 1217 1254 1318 1107 1019 1103 1018 1021 1280 1278 1219 972 997 1075 1141 1256 1306 1075 963 974 990 840 689 539 562 627 644 719 726 674 613 614 634 677 667 756 797 782 762 744 715 830 819 786 867 982 1078 1048 1056 1105 1246 1383 1371 1328 1344 1352 1408 1384 1344 1271 1224 1156 1168 1194 1182 1185 1183 1172 1151 1148 1162 1133 1087 1064 1091 1094 1101 1082 1087 1143 1181 1137 1108 1000 922 868 857 846 841 838 802 802 818 822 843 862 847 827 827 823 829 804 848 857 867 834 844 855 854 889 939 979 946 928 875 856 823 851 896 894 887 927 964
57 57 56 50 56 58 61 66 70 72 85 94 107 122 134 117 169 170 232 224 187 153 159 215 280 289 300 329 367 330 310 353 280 270 357 482 481 451 428 465 597 643 582 493 446 340 313 421 432 503 534 557 658 767 838 881 928 966 1042 1120 1164 1219 1251 1164 1115 993 934 981 1027 1056 1139 1162 1268 1316 1240 1233 1251 1237 1176 1121 1288 1148 1062 1021 1116 1229 1292 1437 1262 1160 1221 1204 1031 856 796 695 586 626 645 699 768 841 806 770 704 761 826 986 958 962 920 871 802 700 665 672 697 802 977 989 1008 1106 1212 1401 1383 1303 1334 1367 1389 1377 1351 1258 1217 1156 1114 1111 1107 1099 1106 1096 1092 1089 1102 1087 1063 1026 1045 1015 1036 1066 1122 1117 1127 1102 1151 1019 936 873 833 818 814 807 800 777 800 817 817 825 825 814 815 819 811 832 900 981 952 936 935 902 865 878 878 836 827 832 836 839 837 835 846 862 893 942 980
61 60 56 50 55 59 61 66 76 91 91 138 150 134 139 140 217 185 243 284 312 205 173 173 235 314 357 410 442 394 416 382 277 314 325 384 431 412 390 478 640 657 623 567 511 374 329 517 624 684 759 743 748 846 894 915 934 983 1024 1067 1148 1234 1272 1261 1079 1070 1060 1085 1157 1114 1050 981 1126 1159 1120 1125 1161 1172 1206 1384 1228 1188 1174 1141 1242 1289 1443 1461 1384 1300 1259 1135 930 797 731 674 603 607 653 697 785 907 947 882 891 967 946 1135 1213 1200 1123 1048 978 893 878 706 672 731 863 941 980 1054 1121 1229 1330 1260 1254 1314 1286 1253 1261 1253 1198 1149 1113 1099 1086 1068 1079 1086 1031 1031 1066 1041 1018 994 1008 976 1026 1076 1056 1083 1104 1109 1188 1074 969 896 852 820 804 799 797 803 781 796 812 808 807 807 810 814 805 848 919 985 1047 1065 1009 975 946 874 826 805 803 807 837 859 838 836 854 876 900 951 965
61 59 57 56 60 63 67 77 93 126 120 127 142 129 169 218 242 230 249 288 334 240 278 241 191 220 311 389 455 487 496 405 286 403 430 376 362 374 402 519 656 671 669 591 429 343 426 570 684 761 831 870 893 887 906 969 1013 985 963 1016 1025 1131 1051 961 829 763 768 809 890 890 918 853 1004 988 963 975 1060 1276 1331 1394 1355 1294 1288 1369 1399 1374 1340 1303 1196 1115 1115 981 864 740 645 609 548 634 700 728 815 962 1087 1085 1086 1265 1131 1194 1403 1386 1292 1207 1100 1084 1005 789 678 705 821 937 1009 994 1022 1047 1202 1242 1195 1221 1211 1210 1196 1198 1154 1127 1123 1127 1148 1092 1066 1058 1031 1010 1004 1004 1005 966 925 919 937 1031 1037 1031 1030 1061 1180 1089 990 916 873 828 828 824 823 815 798 789 802 804 804 807 813 813 803 831 887 935 986 1014 1029 1004 925 866 818 796 810 832 870 873 858 866 887 911 909 952 976
62 62 62 57 66 77 74 95 121 146 172 168 115 142 196 237 271 286 303 300 305 282 352 331 263 213 250 304 410 500 526 466 340 328 347 355 369 394 457 522 606 639 665 613 467 368 424 488 568 639 782 872 937 994 1023 868 769 680 659 721 744 779 724 650 705 832 843 811 770 731 764 786 816 883 956 985 1071 1226 1355 1329 1160 1165 1120 1296 1389 1245 1096 1024 1072 942 844 773 757 750 646 568 548 630 699 765 883 1064 1201 1337 1383 1452 1281 1234 1433 1347 1330 1267 1198 1111 979 836 720 688 773 933 963 969 983 990 1148 1175 1152 1180 1166 1161 1142 1148 1132 1144 1165 1187 1178 1194 1188 1199 1142 1043 1040 1011 978 966 925 893 873 896 937 980 966 1010 1108 1036 970 913 867 835 842 836 827 819 805 801 794 792 793 805 812 811 807 803 820 848 910 917 933 921 846 809 802 822 824 891 948 928 910 901 907 890 892 907 936
66 65 61 55 58 74 83 112 149 178 187 224 231 197 200 188 282 317 327 346 330 310 361 342 282 239 244 305 344 444 524 549 516 452 426 366 348 445 583 639 625 632 660 645 544 387 372 494 574 688 786 846 893 942 889 695 568 545 608 577 594 642 670 790 843 1079 1120 1059 1005 810 803 885 836 926 1076 1085 1060 1234 1408 1345 1188 1025 950 1004 1131 996 885 829 787 754 684 657 626 617 611 615 584 602 733 825 889 1046 1237 1416 1310 1305 1393 1362 1360 1253 1284 1317 1194 1085 991 871 737 698 729 863 920 920 909 961 1112 1125 1139 1182 1188 1172 1165 1149 1155 1170 1163 1191 1228 1227 1247 1250 1140 1129 1094 1105 1087 1053 984 915 861 851 847 850 868 890 969 947 901 874 860 863 889 885 838 826 808 798 804 808 808 800 793 795 799 795 764 781 825 830 820 793 750 761 798 821 860 923 932 910 898 857 901 920 919 925 932
68 61 60 65 74 79 86 106 134 171 198 235 256 236 249 203 231 339 339 349 374 329 362 400 366 319 257 277 338 411 490 550 575 582 529 428 365 453 551 665 699 722 725 701 627 482 348 378 460 527 600 601 604 642 631 527 554 702 846 879 863 870 933 898 975 1136 1332 1226 974 795 944 1064 897 950 1092 1277 1221 1352 1412 1386 1182 1055 909 832 906 803 740 710 677 638 616 635 659 707 729 695 608 591 671 712 784 982 1165 1140 1093 1237 1465 1332 1330 1246 1195 1215 1157 1079 1070 950 734 721 744 763 824 859 882 964 1094 1143 1144 1165 1211 1189 1221 1187 1200 1203 1240 1303 1289 1249 1234 1245 1282 1271 1209 1190 1170 1146 1092 1063 963 900 854 840 838 840 865 876 896 915 895 879 887 857 817 816 813 803 802 796 801 808 805 786 781 792 796 768 757 765 753 750 719 728 760 806 843 857 844 874 829 871 933 956 960 973 968
63 58 62 75 86 79 99 122 132 138 178 218 240 274 298 310 208 336 354 346 390 405 389 444 467 471 372 281 300 364 409 460 486 534 599 589 488 466 621 657 674 719 782 776 711 608 483 443 395 383 397 414 419 428 436 445 497 574 703 868 1068 1148 1212 1218 1115 1169 1288 1081 880 929 961 1150 972 961 1138 1309 1349 1262 1169 1187 1146 976 883 752 730 688 655 623 627 636 692 780 859 921 914 785 667 633 621 634 727 859 925 933 1029 1188 1486 1456 1414 1249 1145 1126 1079 1079 1077 905 741 775 761 783 818 879 925 1012 1102 1120 1135 1176 1214 1233 1261 1265 1279 1316 1334 1322 1298 1288 1278 1313 1377 1391 1301 1233 1160 1104 1036 990 951 956 924 874 856 891 935 942 915 889 893 869 849 826 820 820 820 813 873 858 794 785 792 805 804 785 771 772 740 751 771 758 743 749 745 769 784 805 822 825 838 882 927 955 973 993 1026
67 73 77 86 113 88 140 150 154 159 167 190 218 230 294 330 260 249 333 370 412 445 406 453 500 487 463 362 283 299 328 357 380 422 505 609 617 507 545 670 704 692 731 775 754 675 603 558 480 464 587 601 548 543 555 606 591 518 524 683 801 901 1072 1157 1282 1297 1160 1003 976 1172 1052 1152 958 1035 1199 1310 1139 1044 966 942 953 807 758 691 726 803 743 708 724 814 908 1025 1088 1060 983 880 815 751 700 661 739 836 897 988 1116 1257 1447 1553 1417 1294 1214 1123 1059 993 987 863 754 762 808 817 847 892 959 1017 1112 1140 1153 1218 1270 1310 1329 1359 1392 1485 1406 1352 1337 1404 1424 1385 1412 1372 1340 1276 1194 1114 1062 1010 972 940 900 875 883 880 916 923 894 871 862 856 839 833 829 824 820 813 810 805 793 786 786 801 805 801 802 798 778 762 813 818 819 824 825 818 811 831 843 853 862 902 941 961 978 1012 1026
71 89 106 124 125 131 149 171 179 182 178 189 209 221 257 300 302 196 355 393 416 448 449 477 517 529 451 351 395 407 405 400 391 435 385 455 640 637 529 537 704 763 769 765 768 727 657 606 518 515 597 669 699 689 755 881 825 682 524 547 637 743 800 904 1006 1133 1239 1117 1001 1199 1220 1166 992 1117 1244 1291 1168 1089 1013 869 813 900 814 729 899 996 826 871 976 1046 1139 1178 1129 1051 1001 962 941 888 826 685 723 795 870 927 1014 1164 1283 1460 1373 1280 1228 1189 1127 1080 1017 848 757 805 888 850 859 902 967 1018 1147 1196 1255 1355 1447 1427 1396 1453 1518 1553 1464 1405 1379 1464 1553 1506 1428 1352 1337 1310 1246 1123 1052 999 988 957 922 889 888 890 897 899 882 868 855 844 835 832 828 822 813 804 800 795 791 788 788 792 798 800 798 798 810 773 766 817 821 819 827 834 837 844 847 856 879 929 953 968 969 974 994
77 87 111 136 150 158 142 178 194 200 199 197 224 248 253 282 263 199 241 330 405 452 449 473 509 525 415 424 556 569 616 568 551 608 469 398 601 730 679 544 559 620 727 802 807 831 821 770 669 682 614 582 703 776 870 1010 1016 862 690 579 503 572 651 711 848 952 1090 1175 1178 1244 1276 1207 1128 1150 1185 1086 1042 961 899 810 892 964 827 760 985 1102 930 893 1042 1181 1297 1248 1165 1098 1136 1103 1005 901 757 822 695 774 927 1013 1055 1115 1270 1496 1410 1331 1278 1232 1168 1022 962 831 762 808 927 884 921 964 1017 1073 1142 1216 1359 1499 1624 1532 1445 1471 1577 1546 1466 1430 1392 1446 1497 1447 1370 1337 1300 1269 1211 1162 1098 1004 949 925 910 908 914 928 915 910 899 878 902 889 859 849 838 826 815 807 801 798 798 799 798 797 787 793 790 797 806 789 738 801 810 815 827 829 831 837 840 854 881 927 950 962 947 967 1019
115 131 138 137 153 171 169 183 191 198 206 209 203 226 246 268 292 314 349 274 278 435 452 470 485 520 476 464 489 552 624 637 591 632 586 457 549 649 731 714 714 634 614 767 805 830 884 910 897 904 836 744 677 740 930 1017 1091 1025 823 725 646 583 554 621 704 824 982 1055 1105 1061 1040 1085 1214 1278 1178 1091 976 878 959 908 874 963 840 779 903 1030 974 889 1034 1131 1231 1365 1259 1241 1266 1068 901 857 925 979 893 729 793 930 1027 1115 1245 1401 1400 1314 1233 1185 1165 1099 978 821 766 821 957 958 1018 1106 1142 1189 1221 1238 1300 1421 1505 1454 1407 1435 1480 1499 1453 1396 1372 1390 1395 1359 1376 1371 1265 1206 1114 1059 1036 1011 985 947 936 931 927 921 906 894 927 971 1031 1026 1012 901 850 826 813 809 805 808 805 801 801 799 797 802 800 786 808 808 761 723 774 814 822 828 825 825 831 847 875 922 950 949 940 998 1108
126 153 165 169 155 169 185 197 197 200 223 230 234 218 227 259 302 309 338 357 260 375 449 481 470 493 527 501 562 560 540 599 636 697 685 583 531 490 569 645 716 766 658 670 684 723 751 821 849 932 1015 1028 960 884 880 959 955 1083 1028 944 885 777 652 567 672 840 869 828 825 867 845 956 1099 1193 1128 1007 891 996 1048 904 947 1071 928 797 940 1120 1139 1033 986 1054 1250 1400 1346 1318 1195 963 963 1007 1191 1279 1060 836 718 847 949 1033 1127 1264 1355 1284 1273 1245 1229 1156 1007 825 777 826 962 1054 1149 1259 1323 1377 1347 1320 1303 1348 1352 1339 1349 1376 1395 1404 1403 1385 1357 1380 1430 1409 1344 1288 1250 1234 1210 1190 1102 1034 994 981 961 951 930 919 906 904 920 962 997 1024 966 890 844 824 814 807 803 803 801 798 797 794 794 801 797 781 810 814 808 793 735 700 796 816 815 816 823 843 860 896 936 916 939 1009 1111
153 154 176 178 187 178 180 191 184 205 220 234 246 256 211 226 270 301 329 360 314 305 414 438 457 492 529 564 530 583 589 575 643 671 726 712 691 665 628 532 656 798 769 703 773 829 924 900 832 817 939 1073 1132 1119 1114 1174 1151 1092 1181 1076 918 801 677 648 639 648 729 813 855 823 988 927 1019 1188 1089 954 990 1128 967 910 1076 1073 895 805 910 1086 1229 1188 1099 1042 1257 1485 1393 1211 989 1017 1196 1218 1403 1272 1060 887 766 785 948 1060 1243 1296 1349 1342 1287 1242 1180 1131 1071 886 791 822 948 1099 1263 1392 1488 1476 1428 1392 1352 1336 1324 1311 1325 1342 1345 1356 1385 1378 1393 1417 1493 1543 1445 1381 1335 1352 1285 1164 1089 1045 1026 1001 979 962 939 926 928 945 945 949 961 981 963 947 865 829 817 807 800 796 793 793 791 792 791 797 793 781 783 794 798 805 801 681 733 780 791 815 823 834 846 871 914 892 908 945 1019
181 170 176 182 192 200 202 189 192 196 203 226 243 266 270 215 260 307 345 349 359 359 322 404 450 460 489 521 568 624 636 600 590 645 716 746 761 743 757 625 621 819 855 769 843 910 943 1003 1022 990 881 866 909 920 946 986 1064 1198 1162 1022 891 736 693 757 830 781 759 973 1046 997 1127 1122 1123 1284 1129 1048 1158 1099 950 987 1116 1088 1009 881 893 1043 1179 1321 1210 1085 1232 1502 1338 1138 1105 1322 1344 1477 1539 1451 1277 1075 882 747 952 1113 1233 1317 1384 1397 1331 1247 1186 1157 1104 935 841 828 925 1087 1314 1484 1596 1592 1509 1427 1358 1325 1304 1320 1322 1337 1342 1354 1347 1379 1450 1477 1542 1538 1554 1517 1394 1350 1247 1163 1119 1066 1024 995 978 982 965 958 945 942 948 945 937 937 954 983 915 847 816 806 798 793 793 790 786 785 787 791 787 790 784 757 795 802 801 707 655 685 750 814 825 833 841 859 884 902 924 935 873
198 193 188 189 187 201 201 195 206 226 241 237 232 245 280 279 240 272 312 335 362 433 388 374 428 440 458 463 499 571 638 645 666 683 713 748 797 804 767 681 599 789 884 891 858 856 919 976 1014 1032 1055 1022 1039 1100 1115 1022 1056 1081 1135 906 749 742 916 905 971 920 725 799 891 1096 1240 1268 1154 1163 1279 1337 1209 1043 1010 1018 1183 1157 1051 958 895 963 993 1164 1325 1233 1196 1463 1434 1267 1305 1519 1501 1517 1445 1457 1274 1165 897 736 847 956 1028 1148 1333 1404 1331 1247 1172 1135 1070 1026 980 856 875 1061 1293 1449 1583 1564 1491 1426 1369 1299 1289 1319 1345 1377 1369 1376 1371 1391 1411 1419 1439 1492 1506 1431 1315 1227 1239 1238 1143 1066 1021 1000 988 1028 1020 990 952 927 921 922 924 923 909 944 949 914 834 810 803 798 795 792 787 782 778 783 778 769 786 737 786 802 801 788 669 622 726 810 821 829 841 875 932 957 941 883 774
164 181 180 182 194 197 202 204 201 207 217 228 238 239 256 300 266 270 299 334 341 394 437 455 399 446 483 450 474 490 529 557 533 542 594 695 741 788 821 772 621 644 719 770 781 814 902 962 996 1059 1091 1122 1142 1200 1226 1203 1084 991 875 804 774 911 1081 986 1060 934 775 919 1005 1053 1275 1145 1023 871 1079 1244 1255 1212 1115 1079 1185 1131 1033 931 1001 1135 1074 1045 1314 1367 1250 1390 1559 1406 1444 1431 1353 1289 1137 1147 1019 873 834 900 919 889 1051 1206 1353 1426 1376 1234 1175 1165 1166 1130 1072 901 898 976 1145 1244 1303 1354 1344 1292 1284 1277 1311 1330 1336 1397 1437 1451 1443 1493 1461 1374 1307 1274 1278 1273 1276 1315 1321 1244 1143 1081 1056 1050 1024 1048 1036 991 953 940 931 921 913 912 903 894 918 944 871 820 812 807 802 800 793 790 784 781 773 775 772 749 698 789 794 781 691 614 688 786 815 822 834 880 954 942 855 758 657
148 153 158 184 189 184 188 188 197 216 220 218 223 226 242 277 303 281 321 363 342 357 373 438 474 445 500 472 518 573 599 619 563 560 569 589 667 724 792 791 680 667 652 653 679 721 748 793 818 846 874 919 974 1003 1077 1136 1218 1099 1001 934 925 970 1151 1139 1005 876 891 1093 1108 1265 1199 1146 885 808 842 916 1000 1108 1182 1209 1187 1018 1042 1025 1125 1242 1266 1084 1170 1447 1395 1340 1379 1449 1463 1382 1292 1148 970 855 854 953 1125 1224 1135 915 999 1133 1281 1451 1390 1226 1220 1269 1202 1183 1099 934 988 954 1012 1085 1117 1172 1224 1267 1302 1321 1351 1350 1344 1375 1452 1554 1565 1513 1440 1325 1302 1433 1549 1507 1495 1402 1324 1247 1168 1133 1114 1091 1065 1080 1041 999 975 961 946 934 922 914 898 890 870 884 855 842 824 818 810 803 796 789 783 781 784 784 749 746 725 662 691 779 748 615 656 698 791 812 822 847 864 847 802 774 705
134 131 143 158 168 152 168 176 185 194 198 215 232 234 252 261 278 296 302 337 356 373 413 409 490 449 458 478 464 523 596 672 692 608 670 643 660 687 774 813 743 725 719 717 742 765 804 871 932 909 920 914 968 1047 1058 1115 1137 972 941 1001 1070 1092 1057 1081 1159 1017 1154 1148 1233 1140 937 1030 906 696 893 1127 1176 1170 1160 1244 1106 1118 1251 1157 1152 1324 1282 1275 1299 1431 1359 1234 1182 1150 1157 1343 1355 1154 898 908 1054 1127 1244 1255 1117 945 1069 1165 1270 1468 1400 1242 1281 1351 1266 1167 1074 928 971 1021 1066 1097 1086 1153 1171 1189 1221 1288 1315 1347 1366 1405 1461 1570 1601 1457 1372 1407 1509 1589 1646 1585 1531 1433 1366 1309 1254 1191 1184 1124 1098 1081 1051 1017 998 975 953 936 922 908 895 883 873 865 860 844 832 823 814 807 799 794 793 786 775 763 789 801 799 783 681 649 671 639 607 613 732 798 801 796 810 786 764 738 635
127 126 130 136 132 142 164 167 175 178 185 197 207 217 235 263 307 328 351 320 361 379 401 433 488 485 456 468 490 506 576 637 690 671 662 712 760 799 775 782 802 825 882 916 881 832 876 944 1023 987 1009 993 990 1023 1059 1121 1010 863 794 789 945 1101 1027 917 1095 1297 1137 945 869 863 751 685 711 663 877 978 1091 1258 1291 1271 1180 1159 1089 1076 1079 1151 1258 1396 1399 1348 1369 1389 1353 1305 1164 1116 1270 1135 891 1072 1212 1321 1330 1208 1023 991 1078 1215 1388 1511 1462 1398 1358 1310 1241 1109 1019 959 997 1023 1080 1158 1160 1178 1268 1274 1208 1216 1297 1363 1408 1390 1501 1638 1580 1498 1450 1571 1558 1521 1551 1529 1476 1412 1347 1277 1254 1149 1081 1102 1125 1127 1110 1071 1042 1006 977 944 949 925 895 880 870 860 848 835 822 814 813 808 803 809 799 790 799 792 804 802 799 800 802 797 801 797 751 594 626 738 785 781 771 743 627 567 500
117 113 111 111 117 119 129 154 161 169 183 187 196 218 227 242 268 302 394 394 353 412 418 457 521 542 471 547 510 544 546 560 650 693 726 703 738 770 804 849 840 859 949 1024 1031 915 917 1007 1141 1097 1003 906 923 971 1103 1070 849 745 744 702 785 969 997 824 936 935 1080 869 635 613 691 770 855 828 747 692 728 859 946 893 852 857 912 924 920 1118 1333 1335 1339 1255 1215 1195 1291 1200 1077 980 1022 950 919 1077 1228 1240 1231 1171 1026 1007 1124 1235 1360 1538 1512 1400 1318 1235 1177 1047 973 1025 1041 1069 1102 1232 1223 1201 1212 1302 1302 1242 1278 1354 1435 1400 1437 1599 1655 1615 1566 1553 1543 1515 1521 1495 1455 1409 1372 1345 1162 1074 1195 1269 1239 1165 1122 1088 1076 1052 1017 966 965 936 898 879 867 858 847 837 825 814 805 804 800 806 805 806 803 799 805 802 797 796 799 800 801 799 781 640 568 695 774 770 772 695 534 532 584
113 124 131 130 123 133 141 147 150 158 166 177 191 206 223 244 259 278 318 356 413 409 408 469 515 545 514 589 588 603 607 618 611 618 671 733 770 802 859 859 855 896 904 981 1065 1069 1029 1051 1007 993 937 817 783 787 819 812 712 653 615 568 561 612 675 574 552 574 743 623 550 646 694 675 876 1061 1034 874 759 734 758 730 948 1137 1247 1187 994 1023 1318 1378 1204 1093 1046 1020 1011 1002 1005 984 918 966 1083 1069 1074 1158 1226 1154 1084 1013 1090 1234 1380 1485 1451 1320 1236 1135 1026 1004 1005 1030 1083 1115 1150 1318 1323 1272 1271 1295 1370 1360 1310 1353 1407 1436 1462 1509 1577 1595 1565 1548 1543 1534 1539 1497 1439 1335 1253 1159 1086 1120 1306 1293 1222 1180 1144 1111 1092 1070 1036 987 937 921 900 877 863 853 850 836 826 822 815 807 804 814 816 812 807 806 807 804 799 796 794 792 788 786 757 645 598 575 608 585 626 572 535 615 671
113 116 119 128 137 144 149 153 161 170 168 181 191 204 227 253 271 302 295 312 336 355 375 414 491 554 560 575 613 663 694 696 719 683 713 710 723 801 872 925 937 958 977 973 1003 1019 988 947 889 843 801 711 669 670 699 724 634 580 514 458 399 399 431 480 564 529 532 544 767 963 1065 800 724 846 962 1049 1086 940 1014 866 890 1135 1405 1286 1090 1047 1373 1374 1208 1250 1308 1277 1290 1349 1308 1113 1121 1194 1202 1071 945 1166 1232 1192 1153 1075 1066 1155 1275 1381 1386 1313 1213 1034 1079 1127 1075 1049 1087 1151 1242 1350 1429 1359 1338 1333 1356 1437 1406 1418 1488 1583 1642 1597 1596 1544 1511 1488 1438 1355 1290 1217 1162 1117 1104 1139 1216 1343 1347 1279 1227 1188 1161 1138 1106 1070 1031 990 964 928 903 888 871 862 861 861 847 836 821 819 817 823 822 816 815 813 813 808 802 798 794 792 788 788 782 771 760 711 644 615 528 535 593 709 787
116 118 119 122 124 131 141 153 164 172 175 178 181 195 234 238 254 264 288 300 320 342 393 412 423 476 551 604 632 652 674 651 665 706 676 688 682 741 786 844 903 879 903 880 866 822 772 817 825 763 692 636 575 554 589 616 510 407 412 434 449 581 732 846 897 903 909 828 721 914 1061 884 1036 866 756 960 1231 1147 1047 876 857 1037 1270 1381 1245 1129 1350 1496 1344 1312 1292 1235 1178 1160 1166 1129 1183 1001 1044 966 882 1128 1205 1259 1239 1152 1101 1117 1172 1317 1409 1316 1144 1080 1138 1190 1164 1095 1117 1179 1293 1369 1456 1491 1442 1425 1403 1441 1472 1493 1669 1837 1901 1757 1681 1553 1438 1371 1292 1227 1204 1197 1197 1243 1355 1437 1420 1360 1300 1262 1224 1187 1142 1127 1101 1081 1044 1021 995 956 938 915 889 877 864 859 852 837 830 828 826 829 828 828 824 819 812 807 802 798 796 792 790 789 782 769 689 698 742 650 619 694 760 823 778
115 118 120 123 125 128 133 145 152 158 157 163 180 192 202 219 252 271 320 356 374 375 370 419 442 450 502 574 570 563 534 531 526 580 570 589 619 686 780 793 744 658 687 730 703 610 670 741 741 674 592 563 513 466 435 402 357 344 391 542 670 866 969 1072 1124 1099 1147 1023 971 1071 1204 1071 1163 1087 824 884 1209 1230 1001 860 942 1095 1041 1259 1418 1265 1310 1288 1176 1160 1191 1207 1163 1163 1253 1302 1186 906 790 831 936 1062 1177 1282 1360 1282 1317 1300 1289 1389 1434 1287 1178 1190 1218 1261 1307 1152 1087 1159 1317 1393 1451 1510 1490 1527 1529 1516 1507 1546 1736 1963 2042 1866 1695 1540 1423 1324 1274 1265 1316 1403 1502 1521 1504 1447 1380 1341 1278 1234 1193 1152 1126 1096 1070 1061 1058 1058 1013 967 932 910 899 886 876 866 858 849 841 837 836 835 833 830 829 825 816 814 810 800 795 789 782 779 778 735 634 544 577 613 724 662 749 718 653
117 120 122 124 127 129 133 140 142 142 148 156 181 202 218 235 249 270 286 293 308 299 299 304 328 359 378 407 448 452 453 470 499 509 529 554 585 596 566 578 598 545 567 597 598 514 530 564 599 620 553 463 434 387 357 351 371 422 439 521 593 629 685 693 772 754 808 905 973 1047 1245 1303 1253 1152 860 919 1186 1316 1085 881 977 1195 1251 1159 1317 1458 1371 1308 1302 1145 1063 1129 1071 1135 1293 1218 954 779 848 1040 1107 1053 1166 1281 1174 1151 1183 1218 1270 1195 1272 1374 1356 1370 1366 1402 1377 1201 1096 1136 1257 1400 1449 1505 1543 1575 1633 1582 1541 1529 1618 1775 1866 1737 1590 1480 1370 1324 1370 1490 1563 1591 1588 1542 1478 1434 1375 1323 1247 1201 1198 1142 1094 1061 1045 1044 1036 1014 1044 1014 967 919 897 882 872 863 859 858 857 854 848 842 837 830 826 819 811 808 809 805 800 796 789 783 774 723 622 537 507 559 651 587 619 594 554
118 121 123 125 128 131 134 137 141 149 157 160 171 184 190 185 218 224 195 207 237 270 281 296 310 327 312 292 295 335 317 367 393 421 425 445 463 442 411 449 408 406 428 459 470 427 373 389 453 449 397 370 325 321 335 368 451 505 520 595 873 925 1002 865 777 903 957 853 841 875 858 977 1131 1237 961 1044 1266 1245 1011 963 1141 1165 1266 1397 1361 1385 1239 1162 1104 1020 1076 978 853 1148 1182 1007 813 749 959 1074 999 985 1107 1133 1038 932 978 1001 1041 1171 1210 1231 1270 1321 1244 1194 1060 980 1000 1065 1155 1276 1441 1563 1628 1687 1627 1589 1558 1515 1526 1551 1566 1542 1482 1405 1363 1384 1434 1480 1505 1506 1512 1515 1468 1398 1369 1323 1271 1244 1183 1125 1096 1090 1081 1071 1057 1066 1042 1016 993 954 910 893 883 878 875 877 885 886 880 867 855 845 833 822 796 771 785 770 798 798 792 783 777 764 737 628 523 492 505 509 512 489 484
118 120 123 126 129 131 133 136 137 142 143 148 149 149 154 160 164 168 172 173 181 218 273 338 355 324 283 239 225 232 242 243 241 254 256 250 255 289 297 294 298 300 327 324 324 328 329 406 392 413 416 407 385 398 431 497 606 660 709 727 910 1169 1219 1184 983 961 1203 1197 1229 1138 1023 970 988 1253 1078 1008 1244 1112 1136 1140 1157 1363 1409 1443 1396 1424 1324 1338 1335 1301 1366 1189 893 808 959 789 709 820 897 1004 910 842 942 1009 948 835 856 881 1026 1019 1008 928 922 902 878 865 896 950 972 950 981 1185 1305 1449 1638 1746 1679 1641 1583 1526 1533 1522 1504 1471 1453 1436 1427 1423 1374 1346 1331 1340 1337 1335 1342 1335 1333 1314 1265 1213 1176 1153 1130 1117 1119 1101 1082 1078 1069 1037 1006 970 933 925 905 898 890 890 893 894 893 889 872 847 798 761 712 689 673 668 733 752 767 768 761 751 740 687 590 544 494 474 474 491 497
119 121 121 124 125 128 131 131 134 138 142 152 164 182 185 188 195 180 168 171 170 172 177 191 210 209 193 190 200 197 202 219 256 257 250 255 339 445 487 450 445 440 485 513 445 402 433 488 525 553 537 497 532 557 557 624 696 792 864 914 1043 1153 1174 1144 1154 1163 1102 1112 1295 1302 1274 1199 1153 1304 1269 1209 1156 1162 1309 1183 1302 1395 1199 1137 1150 1410 1294 1193 1138 1217 1299 1256 1079 785 709 722 713 736 766 757 755 795 880 879 851 767 744 765 822 868 811 806 857 939 1086 1148 1292 1336 1370 1300 1081 990 1155 1334 1477 1702 1725 1694 1602 1561 1558 1594 1596 1549 1533 1520 1468 1489 1425 1388 1470 1565 1571 1536 1510 1429 1364 1300 1256 1219 1197 1192 1190 1179 1146 1126 1100 1076 1058 1033 1010 982 953 932 920 915 907 901 874 826 809 801 784 790 816 776 739 708 740 753 678 659 650 634 702 705 718 721 696 649 568 513 504 513 491
118 117 118 120 123 128 131 132 140 156 170 175 186 206 222 242 267 285 229 190 172 174 175 176 185 193 201 210 215 205 201 204 259 267 256 275 320 413 434 475 516 597 589 592 556 497 541 555 577 619 670 611 554 591 631 669 630 620 724 873 943 887 815 864 1094 954 881 911 980 1066 1199 1179 1095 1047 1114 1326 1134 1084 1062 1169 1228 1230 1146 895 1032 1244 1342 1284 1200 1112 941 967 993 864 655 624 696 664 764 731 803 750 719 720 713 723 718 711 731 761 887 1056 1189 1280 1357 1332 1324 1386 1454 1513 1416 1299 1111 1144 1361 1482 1620 1725 1673 1655 1678 1694 1651 1632 1595 1576 1553 1570 1588 1540 1637 1686 1653 1608 1497 1471 1387 1327 1398 1364 1263 1208 1179 1165 1158 1141 1105 1081 1054 1030 1011 993 973 955 940 928 920 884 848 899 901 881 879 876 863 838 828 810 808 810 774 726 712 644 563 572 595 608 626 690 670 598 571 519 509
113 115 121 122 125 130 140 151 161 167 166 180 196 216 228 243 262 292 323 323 240 224 218 236 278 281 284 301 276 245 229 210 213 217 221 223 243 270 303 302 341 437 427 432 439 444 479 459 481 497 483 465 467 485 510 542 522 528 565 700 739 741 578 704 811 761 783 813 832 952 1131 904 823 883 1119 1320 1206 1069 845 815 793 788 857 763 896 993 1128 1065 1048 1153 921 715 659 614 595 694 855 732 870 974 1058 973 858 794 806 809 833 778 839 844 854 870 990 1097 1204 1296 1382 1451 1505 1560 1590 1486 1361 1186 1376 1509 1545 1595 1686 1752 1710 1708 1692 1674 1639 1603 1558 1497 1473 1545 1622 1611 1560 1524 1434 1417 1377 1375 1374 1288 1196 1155 1120 1094 1120 1145 1130 1099 1074 1047 1027 1003 976 950 927 926 876 899 920 933 926 912 910 898 874 810 763 717 702 702 685 678 659 643 609 569 541 529 503 533 558 602 612 533 570
111 115 121 124 127 134 145 151 149 148 160 180 201 220 240 266 277 285 311 334 344 354 292 274 326 420 452 470 472 402 349 279 228 223 224 227 228 233 232 230 238 266 290 306 322 355 399 388 391 398 394 372 374 366 389 394 401 429 442 473 448 507 453 476 518 485 564 638 707 786 913 744 726 1030 1244 1320 1174 1069 1125 1063 950 823 732 645 690 793 1033 813 912 806 620 708 737 648 731 758 858 871 894 1074 1134 1044 980 966 962 918 906 889 844 949 1119 1132 931 919 1002 1172 1337 1447 1496 1538 1620 1568 1470 1391 1324 1444 1643 1677 1682 1709 1724 1740 1731 1693 1641 1595 1543 1491 1446 1408 1394 1366 1360 1363 1357 1349 1286 1218 1182 1135 1091 1069 1095 1111 1102 1101 1091 1062 1046 1020 997 983 953 950 952 922 930 938 944 953 943 925 924 897 830 775 755 755 777 776 762 740 723 710 702 695 679 623 618 576 480 465 464 460 459
114 117 121 131 144 152 157 150 149 163 176 185 206 232 255 278 301 295 300 266 307 333 287 214 232 286 359 431 463 482 481 441 430 386 309 272 267 260 266 274 284 247 247 241 249 255 262 270 278 275 283 292 294 289 295 310 320 316 326 326 339 362 377 395 413 499 497 477 441 484 659 609 682 925 1164 1350 1261 1249 1289 1289 1159 1101 1034 943 647 667 830 634 615 606 758 984 917 731 821 945 966 966 1054 1139 1169 1132 1135 1137 1138 1027 1009 1011 939 970 952 1147 1264 1174 1014 926 1079 1258 1442 1540 1630 1673 1612 1536 1505 1461 1778 1825 1851 1855 1769 1688 1618 1491 1416 1373 1379 1374 1347 1286 1237 1233 1248 1224 1189 1168 1150 1126 1113 1119 1172 1249 1239 1222 1212 1175 1136 1114 1096 1072 1050 1025 1008 984 973 970 964 956 963 959 946 936 937 912 865 854 844 813 780 771 767 745 741 748 727 692 696 659 569 513 478 470 486 495 533
115 124 137 146 150 150 158 174 190 199 216 226 243 251 266 282 289 245 214 186 227 212 206 201 252 348 367 455 471 507 535 560 557 551 474 438 402 370 366 323 329 316 317 309 283 270 267 268 274 289 300 308 308 305 312 335 333 356 450 468 415 459 521 555 509 580 644 697 719 648 487 540 854 1077 1177 1346 1216 1114 1032 1109 1197 1149 997 968 733 555 548 615 720 855 837 1032 1010 889 1001 1097 1122 1070 1105 1175 1263 1225 1259 1295 1335 1238 1141 1270 1058 1170 1115 989 1063 1321 1298 1011 950 1043 1211 1346 1433 1586 1702 1654 1746 1482 1648 1804 1948 1894 1755 1695 1417 1336 1374 1367 1347 1287 1309 1294 1279 1218 1166 1159 1147 1141 1155 1203 1257 1335 1478 1417 1262 1207 1183 1159 1144 1144 1096 1073 1057 1034 1028 1006 993 982 969 969 978 963 952 945 935 908 863 820 781 737 709 685 696 667 632 645 629 595 561 526 501 488 492 491 513 592 621
116 127 140 140 139 152 178 195 210 228 241 261 276 282 285 303 295 258 222 196 175 177 188 191 196 210 231 356 457 518 619 672 688 666 594 585 544 497 473 423 422 419 451 421 382 345 329 339 359 363 335 340 337 330 359 416 421 434 499 532 583 601 688 729 637 643 751 865 1038 903 613 487 730 942 995 1223 1353 1277 1017 810 932 845 725 623 545 490 580 776 828 1015 1075 1111 985 1055 1128 1147 1062 1008 1084 1192 1220 1125 1226 1262 1327 1427 1437 1321 1164 1370 1319 1305 1000 1116 1297 1224 1086 988 996 1047 1192 1345 1510 1702 1815 1722 1862 1934 1910 1753 1598 1449 1415 1611 1670 1645 1568 1510 1474 1363 1449 1448 1401 1364 1345 1355 1362 1318 1284 1394 1397 1286 1209 1172 1164 1149 1157 1171 1128 1081 1064 1049 1038 1024 1014 993 982 979 975 963 955 947 924 857 809 744 704 684 728 778 664 630 628 602 589 552 540 529 548 572 574 546 604 599 455
126 130 134 134 153 170 186 202 214 233 248 266 280 235 206 204 230 257 230 193 173 184 198 194 188 189 198 229 302 413 509 564 584 594 590 559 525 511 514 524 522 512 496 459 435 450 479 478 463 436 380 426 455 476 487 525 498 543 588 594 713 807 902 993 857 766 822 1029 1128 977 718 489 483 541 794 976 1149 1300 1104 886 687 645 516 478 464 474 491 552 737 856 969 1015 858 972 1028 1030 1005 948 1023 1111 1082 1046 1095 1133 1223 1324 1425 1374 1354 1422 1448 1270 1168 1225 1173 1357 1346 1169 1241 1210 1076 1222 1425 1592 1747 1859 1982 2053 2003 1862 1751 1705 1777 1882 1815 1745 1653 1582 1475 1509 1664 1576 1509 1447 1419 1368 1321 1338 1298 1241 1217 1198 1186 1169 1151 1135 1153 1149 1096 1073 1062 1047 1027 1016 1004 990 981 977 969 960 958 945 914 886 855 820 811 819 832 795 750 713 666 670 674 647 635 691 705 699 688 670 630 503 438
129 134 134 125 133 138 142 129 167 182 208 220 202 188 150 142 161 196 178 201 219 232 237 251 256 240 234 210 243 294 352 487 511 528 537 478 441 559 625 661 705 639 633 631 626 650 673 650 570 511 436 442 573 683 707 680 592 625 692 717 724 791 930 1119 1080 1013 962 992 982 815 643 675 822 533 529 698 1023 1268 1119 904 676 500 468 532 488 465 544 547 516 668 868 824 774 854 906 908 939 876 928 968 992 1021 1053 1085 1108 1138 1211 1271 1386 1480 1411 1326 1455 1516 1352 1410 1477 1403 1418 1513 1324 1183 1267 1413 1571 1782 1901 1927 1949 1946 1892 1833 1936 1881 1799 1765 1723 1660 1607 1748 1704 1586 1462 1325 1231 1131 1076 1067 1053 1030 1019 1007 1014 1077 1144 1136 1130 1115 1110 1083 1070 1063 1051 1022 981 911 888 916 922 927 941 944 930 904 883 855 846 848 845 837 827 815 786 750 736 751 747 758 747 730 697 672 597 489 442
96 96 97 100 103 106 109 112 116 119 123 126 127 130 141 155 157 153 162 200 203 195 205 218 235 291 312 301 253 240 252 294 325 341 361 395 450 513 591 658 673 695 697 788 867 915 798 690 614 629 660 587 492 571 723 748 679 722 765 835 907 847 954 1134 1283 1257 1161 985 850 884 967 917 798 630 554 548 823 1128 1021 739 538 457 458 474 494 565 663 764 623 520 557 586 714 682 702 735 770 827 903 946 990 1035 1068 1089 1105 1110 1112 1123 1215 1244 1260 1411 1297 1257 1283 1316 1350 1463 1519 1504 1484 1502 1505 1610 1744 1760 1779 1795 1798 1790 1629 1499 1507 1446 1402 1437 1484 1497 1486 1501 1400 1233 1142 1100 1113 1191 1232 1223 1214 1207 1194 1170 1139 1028 969 1081 1121 1117 1125 1099 1068 1056 1041 1023 997 955 854 802 788 779 838 898 928 897 836 803 805 820 851 839 830 804 751 728 707 718 700 690 679 670 653 635 543 497 489
93 96 98 100 102 105 108 111 114 122 134 127 177 210 245 265 248 234 178 162 179 198 219 234 254 358 423 440 399 347 406 365 322 316 281 303 353 385 504 556 556 528 581 726 796 883 955 810 771 818 852 774 686 585 600 719 771 788 817 858 934 1002 1035 1130 1272 1295 1165 947 1079 1148 1119 1008 842 674 617 457 605 874 770 594 467 463 550 571 598 701 856 921 851 804 638 561 556 544 603 669 757 798 763 827 967 1011 1051 1059 1064 1076 1112 1066 1075 1086 1115 1165 1124 1032 1185 1219 1250 1207 1206 1291 1411 1502 1513 1559 1679 1762 1817 1868 1952 1864 1697 1474 1417 1387 1366 1297 1229 1205 1191 1163 1161 1164 1207 1335 1442 1398 1341 1306 1277 1248 1201 1168 1149 1138 1077 932 1101 1105 1099 1056 1038 1028 1020 1001 956 922 886 849 811 790 772 754 770 790 731 695 698 702 814 837 832 819 768 734 707 686 677 678 665 647 608 616 595 580 549
93 97 124 180 139 115 109 110 115 165 194 198 233 334 360 363 336 291 254 209 170 197 203 235 284 280 355 374 407 484 526 532 522 536 454 456 415 389 396 418 440 459 516 585 626 694 811 925 968 1012 1038 983 894 766 703 715 736 702 790 900 948 1028 989 1114 1303 1331 1209 1229 1268 1265 1131 1038 865 622 555 549 526 496 471 458 517 597 753 887 874 895 1076 970 871 772 716 725 730 667 581 583 588 588 633 667 758 829 868 786 836 814 823 870 991 1037 1001 922 882 878 924 958 967 988 1032 1109 1175 1258 1384 1549 1694 1885 2049 2201 2260 2222 1961 1868 1817 1723 1619 1523 1446 1379 1332 1286 1310 1409 1549 1597 1568 1468 1379 1320 1252 1255 1228 1145 1117 1125 1112 922 1008 1083 1061 1044 1032 1010 994 980 973 954 942 932 919 909 878 842 808 793 786 799 786 713 741 824 819 818 806 758 727 726 713 700 672 642 613 604 602 607 604
110 111 121 186 235 183 135 107 163 291 296 296 292 306 361 396 369 309 289 266 203 207 242 228 382 392 416 436 407 475 530 536 594 632 628 598 543 526 443 461 421 422 404 442 479 506 559 646 696 794 972 1135 1086 937 923 928 897 834 792 849 1005 1206 1198 1145 1210 1339 1340 1263 1135 1043 951 826 614 679 816 819 688 687 631 538 572 712 800 938 1072 1080 1042 947 1022 893 885 882 908 893 755 706 694 666 612 607 639 665 666 664 670 731 761 698 780 903 794 866 990 1132 1230 1298 1248 1182 1150 1218 1268 1323 1459 1608 1902 2212 2323 2502 2530 2408 2199 2104 1948 1854 1782 1685 1577 1454 1397 1475 1660 1672 1684 1633 1584 1509 1389 1305 1252 1219 1213 1190 1160 1074 1079 1014 850 959 1034 1065 1065 1055 1022 987 938 931 947 957 951 914 877 855 833 805 758 709 714 695 669 680 724 743 805 796 786 773 761 737 685 679 651 619 617 612 561
146 155 141 129 133 183 161 104 126 232 327 330 374 388 394 398 411 380 344 299 244 223 292 272 325 511 579 582 520 513 630 654 664 711 707 662 642 603 541 557 490 509 518 438 441 477 471 473 503 672 860 964 1114 1091 1098 1139 1047 1004 969 953 958 1166 1242 1249 1275 1228 1194 1064 907 816 754 702 698 899 1094 971 871 859 801 772 526 542 637 733 924 936 938 815 906 894 918 1029 1042 1031 963 880 861 828 751 738 696 802 778 757 801 904 798 706 729 754 851 931 979 1123 1294 1356 1357 1387 1428 1452 1470 1527 1677 1773 1944 2323 2585 2834 2751 2509 2294 2090 1940 1818 1723 1671 1611 1557 1603 1712 1747 1657 1594 1559 1509 1473 1396 1314 1235 1195 1170 1127 1133 1069 876 860 846 764 789 971 1081 1072 1039 1012 970 927 906 893 873 871 844 816 774 772 767 765 795 789 771 764 706 650 669 717 704 668 649 685 680 635 669 601 615 619 550
165 167 117 100 101 100 101 101 105 119 159 207 302 338 407 426 430 356 326 319 264 270 347 336 359 438 528 583 651 586 649 764 819 785 759 730 685 645 666 623 614 596 581 526 572 595 548 562 523 536 683 811 809 843 927 1087 1135 1119 1117 1135 1058 1105 1101 1158 1252 1212 1207 1152 1088 923 804 887 796 939 1152 1067 1011 1115 1028 781 623 752 620 604 600 639 679 699 766 735 831 942 1082 1117 1076 1055 1025 957 867 839 787 836 908 954 1042 1129 961 795 729 800 848 876 928 1046 1241 1261 1213 1208 1222 1255 1300 1405 1605 1772 1919 2105 2395 2795 2796 2547 2303 2099 1929 1820 1710 1631 1597 1577 1668 1819 1792 1709 1641 1603 1564 1456 1358 1256 1183 1169 1162 1055 912 939 815 752 806 778 725 825 1024 1047 1036 1028 1014 988 961 936 900 883 859 824 803 837 836 820 805 787 771 760 754 746 713 672 660 660 642 641 641 623 601 568 564 605 532
112 135 100 96 96 97 98 100 101 104 106 115 133 184 261 286 304 201 254 366 374 384 418 430 441 483 537 608 717 728 750 893 981 928 875 803 765 782 774 767 711 663 650 680 688 668 644 602 621 596 578 604 651 733 781 852 980 908 940 1060 1194 1184 1192 1127 1059 1073 1103 1043 1153 1110 1040 1024 836 918 1092 1222 1194 1112 891 711 844 1055 826 903 817 679 601 593 625 757 890 944 1015 1116 1088 1079 1062 1014 955 890 914 1023 1157 1263 1357 1462 1224 975 798 743 785 782 830 921 974 979 981 1020 1081 1134 1186 1265 1380 1579 1787 2059 2336 2481 2413 2270 2134 1965 1903 1820 1678 1556 1498 1464 1508 1735 1877 1824 1755 1650 1515 1345 1234 1165 1107 1019 1029 893 788 757 803 909 1043 1101 923 737 751 851 983 1013 999 983 969 958 947 928 893 866 859 851 821 831 818 800 779 753 727 714 704 687 677 683 712 698 696 692 668 622 573 529 597
92 92 93 93 95 96 97 100 102 105 108 110 113 124 135 156 159 200 323 378 408 459 508 549 542 589 636 691 827 921 894 923 1063 1090 1046 954 868 946 903 840 783 758 789 770 742 698 709 696 745 789 783 670 695 672 672 689 739 737 785 911 928 916 993 951 1028 906 934 832 869 996 1095 1085 917 1034 1198 1247 1146 1042 862 766 1000 1145 1056 1194 1176 900 809 626 618 762 816 896 941 904 915 949 1016 1104 1095 1086 1031 1122 1295 1356 1367 1413 1410 1166 940 769 824 897 861 886 955 988 1003 1177 1323 1373 1399 1338 1236 1454 1717 1949 2162 2206 2206 2080 1987 1889 1821 1752 1612 1488 1406 1348 1342 1475 1808 1908 1780 1629 1418 1262 1175 1138 1096 963 820 759 858 909 952 1168 1256 1306 1153 984 777 698 803 940 999 992 982 966 959 936 907 894 879 838 821 788 780 772 776 779 772 746 726 693 664 655 650 642 640 645 629 557 516 602 721
89 88 90 94 96 99 104 106 113 112 109 114 116 124 132 137 144 181 307 323 372 439 486 531 588 630 676 735 816 900 985 1001 969 1082 1179 1036 1016 1049 971 909 930 899 843 794 786 768 836 848 971 1011 874 831 945 816 845 853 933 914 872 873 984 946 993 1032 856 836 774 741 785 872 1041 1091 1098 1233 1222 1185 1061 954 890 793 971 993 1211 1308 1125 931 769 634 636 626 658 717 763 843 872 926 1059 1221 1361 1289 1144 1141 1276 1273 1272 1258 1311 1346 1156 875 780 886 951 1115 1335 1335 1168 1094 1227 1450 1598 1628 1350 1367 1671 1861 1930 1999 2084 1963 1860 1753 1659 1605 1532 1471 1424 1347 1251 1279 1605 1770 1657 1511 1353 1226 1153 1076 992 860 774 868 944 1049 1139 1261 1248 1253 1158 962 828 714 680 748 892 974 971 962 958 936 911 914 904 890 870 845 814 791 766 754 741 728 721 714 719 702 679 653 647 647 658 554 517 684 731
90 88 92 98 102 106 110 114 120 127 133 128 120 124 137 139 171 195 271 258 291 373 430 485 533 568 627 732 800 854 942 1049 1093 987 1081 1177 1152 1168 1079 1046 1004 976 907 862 863 917 1006 1059 1100 1146 1050 999 1066 957 1028 1056 1047 1071 1149 1118 1134 1038 954 930 884 742 676 829 928 986 1089 967 945 1035 1029 1169 1173 1112 969 856 1122 1158 1217 1358 1131 939 747 721 691 666 645 725 854 952 1022 1075 1161 1283 1546 1437 1232 1243 1504 1437 1324 1264 1222 1198 1201 941 766 836 946 1133 1407 1519 1383 1353 1280 1266 1439 1560 1594 1383 1586 1758 1828 1883 1945 1864 1746 1616 1560 1518 1513 1517 1472 1346 1238 1179 1320 1614 1553 1416 1274 1185 1145 1128 1062 972 846 785 922 1039 1190 1387 1339 1223 1143 1078 946 846 750 665 741 780 870 935 926 911 903 908 902 894 880 873 871 860 841 827 787 752 743 763 750 727 698 709 658 613 602 499 619 725 746
96 93 94 99 102 107 116 123 126 127 132 142 143 133 132 148 175 196 203 234 309 361 437 477 540 572 607 682 803 904 982 1067 1087 1162 1182 1184 1092 1016 988 936 866 846 883 900 945 1006 1074 1078 1098 1197 1224 1148 1138 1191 1135 1025 894 865 965 979 1057 911 859 756 789 667 753 904 942 933 905 822 825 935 975 1118 1179 1074 1038 946 1166 1341 1341 1307 1052 877 881 813 793 846 733 726 822 920 1022 1179 1366 1357 1558 1433 1276 1479 1679 1533 1396 1425 1362 1135 997 836 765 798 930 1137 1387 1486 1499 1526 1535 1468 1510 1563 1647 1622 1574 1625 1790 1841 1828 1799 1732 1723 1741 1683 1615 1426 1333 1264 1209 1168 1163 1371 1410 1316 1213 1153 1107 1078 1070 1052 1026 856 826 949 1214 1439 1352 1306 1258 1203 1084 972 844 744 672 662 707 841 869 895 889 884 877 874 869 870 874 865 850 834 816 798 784 762 750 760 749 727 657 555 536 637 733 770 785
99 94 92 107 106 106 112 121 143 137 139 142 145 149 148 154 196 188 217 254 255 333 412 436 559 631 664 698 767 838 912 906 1020 1071 1097 1157 1104 1034 911 793 795 779 822 872 918 930 909 916 956 1104 1259 1205 1071 1009 901 869 850 748 719 876 976 947 729 821 647 617 689 726 741 756 758 840 878 917 1054 1212 1212 1185 1111 1055 1171 1341 1334 1169 1012 1029 975 846 904 927 772 714 813 905 1029 1156 1293 1450 1627 1464 1473 1590 1481 1356 1338 1349 1307 1062 848 785 772 811 881 932 1058 1291 1402 1444 1497 1520 1515 1528 1587 1670 1795 1776 1805 1806 1793 1694 1681 1626 1544 1496 1452 1379 1381 1357 1277 1184 1133 1132 1268 1216 1159 1117 1094 1077 1058 1044 1027 936 819 994 1192 1378 1344 1288 1221 1149 1106 1071 977 883 817 798 655 654 701 833 872 869 854 843 861 860 862 857 844 835 823 804 789 778 771 759 733 704 711 630 600 735 773 824 852
100 99 93 111 108 105 107 109 123 148 156 165 162 163 159 154 173 257 308 292 326 330 366 403 483 560 639 701 744 814 772 878 954 927 1045 1033 942 920 805 691 680 707 808 901 998 1119 1085 1137 994 1050 1162 1227 1182 1033 993 837 725 620 704 762 932 887 710 673 587 726 784 844 797 900 928 1027 991 1065 1036 1185 1258 1236 1241 1220 1248 1260 1282 1172 1094 1018 1007 990 1029 1004 876 791 819 951 1058 1136 1243 1364 1491 1404 1373 1377 1336 1297 1282 1196 1203 1026 803 785 785 855 1032 1151 1105 1078 1139 1206 1256 1347 1438 1507 1577 1687 1793 1777 1844 1859 1740 1645 1623 1572 1579 1481 1503 1612 1586 1465 1325 1227 1162 1076 1145 1171 1120 1092 1067 1068 1059 1016 920 827 869 1008 1168 1379 1397 1308 1212 1162 1127 1081 1050 1008 958 873 846 779 648 669 845 870 865 799 845 855 852 845 836 833 819 806 794 781 770 759 756 729 685 681 598 706 788 833 891
101 102 104 103 93 95 98 102 123 140 153 169 184 194 192 195 182 193 275 264 287 264 323 361 409 481 573 664 590 568 559 613 721 824 904 839 676 616 592 621 651 690 868 1085 1083 1065 1144 1224 1105 1143 1181 1082 936 858 834 775 584 646 818 873 838 845 744 562 644 842 956 989 980 1055 1082 1097 1203 1184 1085 1250 1161 1189 1168 1158 1196 1120 1138 1201 1236 1178 1192 1149 1226 1184 1058 935 789 909 1002 1084 1187 1366 1479 1346 1239 1254 1210 1201 1264 1126 982 890 816 822 820 828 989 1187 1292 1379 1463 1495 1494 1506 1546 1604 1682 1678 1658 1682 1753 1895 1863 1833 1832 1718 1749 1730 1727 1666 1572 1452 1343 1189 1141 1033 1103 1167 1105 1078 1062 1033 1019 993 871 834 965 1123 1367 1459 1402 1280 1169 1100 1078 1066 1037 1012 973 904 874 833 772 625 731 789 800 749 705 816 844 838 825 827 821 810 798 790 777 757 727 703 712 688 612 712 788 822 874
104 105 111 112 100 97 96 103 118 136 150 173 175 196 214 218 228 222 222 219 228 248 275 275 285 307 370 478 476 475 490 496 537 654 714 678 601 514 562 628 701 770 877 1003 1090 1149 1197 1275 1291 1212 1129 998 912 799 662 656 543 651 738 653 653 759 616 585 683 768 782 821 944 958 907 1070 1204 1033 945 1074 1026 1060 1025 1025 1018 950 1034 1156 1239 1293 1304 1297 1343 1254 1079 937 988 971 1000 1130 1210 1323 1408 1312 1323 1258 1160 1098 1132 1073 901 861 952 967 852 830 854 1053 1272 1359 1450 1500 1568 1582 1605 1553 1512 1499 1539 1615 1717 1824 1908 1793 1724 1696 1610 1584 1584 1552 1514 1426 1304 1180 1097 1001 1006 1084 1127 1079 1073 1054 1013 1000 850 886 1021 1282 1510 1464 1347 1255 1157 1115 1061 993 950 928 897 840 798 756 719 675 639 695 621 621 615 627 635 681 682 660 701 773 789 787 786 776 726 677 647 600 641 736 774 795 818
103 109 116 115 100 108 105 102 113 122 141 165 182 199 209 218 226 234 245 255 264 284 348 399 368 335 318 322 353 368 423 422 415 466 532 569 498 512 587 704 767 793 859 1011 1036 1057 1141 1203 1093 992 890 867 850 833 742 589 486 567 527 510 527 539 535 619 858 855 868 908 1030 885 848 1085 1025 998 863 847 801 825 866 853 862 892 955 1028 1083 1144 1195 1285 1350 1235 1076 1033 1164 1111 1096 1120 1143 1214 1293 1299 1281 1267 1193 1125 981 942 870 1053 1103 1069 979 857 847 883 972 1086 1216 1270 1342 1320 1339 1334 1399 1497 1571 1664 1743 1832 1841 1723 1611 1524 1437 1380 1347 1357 1302 1270 1271 1243 1113 1022 976 979 1090 1049 1061 1032 965 873 878 1034 1138 1347 1432 1404 1299 1201 1134 1049 984 947 908 876 845 841 832 779 722 687 635 615 640 709 706 716 695 634 616 594 593 613 636 632 645 666 622 634 696 741 681 639 741 774 784
105 108 110 110 110 122 127 114 114 131 141 151 166 176 190 208 216 205 219 228 237 276 327 376 493 515 467 443 350 408 423 422 426 398 438 463 473 542 613 689 794 867 951 1131 1221 1249 1199 1139 1019 873 750 681 686 715 754 511 616 838 789 758 696 686 777 612 599 674 693 692 747 763 765 930 811 760 801 830 955 989 916 922 935 941 972 975 972 1034 1103 1216 1343 1263 1159 1162 1271 1265 1192 1149 1097 1093 1147 1157 1137 1106 1068 1033 988 937 898 1040 1146 1169 1150 1085 955 942 929 968 1052 1134 1203 1267 1319 1350 1442 1540 1603 1677 1758 1874 1851 1720 1631 1551 1466 1431 1363 1288 1245 1209 1159 1144 1089 1030 1008 945 967 976 969 922 884 835 977 1102 1313 1455 1406 1336 1250 1138 1057 1006 993 979 938 907 874 839 814 824 807 746 692 713 708 769 786 759 726 769 783 749 742 787 804 769 673 697 694 726 764 771 754 651 672 779 776
109 109 110 111 121 126 134 149 138 131 126 134 144 151 161 165 159 227 240 229 286 315 310 349 472 593 649 577 508 467 484 480 498 471 485 527 530 558 614 648 715 793 892 964 1076 1225 1168 1064 955 839 785 769 659 538 550 496 640 698 746 814 873 791 921 842 627 780 708 764 807 832 699 749 749 937 955 1081 1139 1017 1049 1068 1039 1036 1163 1226 1012 1038 1075 1152 1256 1349 1313 1326 1385 1367 1245 1159 1142 1151 1100 1060 1053 1042 1012 952 924 1000 1111 1140 1156 1188 1222 1248 1255 1182 1070 1034 1069 1102 1154 1250 1326 1393 1441 1512 1606 1735 1875 1916 1857 1724 1697 1684 1678 1642 1557 1470 1372 1312 1262 1187 1143 1106 1032 957 904 890 891 868 852 841 988 1162 1383 1415 1393 1338 1247 1161 1137 1096 1069 1019 1029 1031 1002 1006 949 865 815 789 813 813 805 765 746 773 833 853 830 816 782 750 745 734 751 782 762 762 778 764 626 592 610 773 784
119 148 146 128 119 126 121 144 194 169 157 155 148 155 171 179 195 197 212 232 264 271 341 479 545 599 767 723 591 488 512 521 519 520 559 598 603 588 609 622 680 730 794 862 989 1088 1194 1108 1032 996 910 781 690 529 450 646 723 751 859 957 934 1090 1121 1011 711 800 841 973 1029 1081 796 955 888 921 1176 1286 1226 1127 1253 1165 1090 1118 1141 1135 1073 1110 1189 1231 1296 1343 1393 1381 1309 1326 1367 1344 1277 1258 1192 1177 1162 1089 1039 991 1001 1057 1148 1171 1177 1204 1260 1300 1362 1332 1303 1238 1320 1341 1298 1284 1298 1357 1508 1564 1609 1674 1797 1890 1842 1744 1789 1785 1715 1637 1540 1421 1316 1250 1232 1180 1086 1048 1028 1010 981 929 889 864 856 857 967 1182 1397 1386 1374 1333 1277 1228 1185 1154 1138 1135 1123 1099 1084 1034 961 914 900 866 860 853 820 766 826 884 878 843 839 780 802 810 813 801 789 791 788 787 783 706 658 595 686 785 787
151 190 225 196 149 129 127 127 151 153 188 195 205 185 206 233 271 288 331 319 301 335 382 453 429 507 603 665 597 536 561 565 551 585 648 690 684 748 774 785 850 814 751 769 850 891 942 973 1014 914 877 737 510 446 612 818 1024 1023 1130 1170 1097 1267 1267 1003 802 756 888 1042 1225 994 957 1026 1160 972 1113 1321 1300 1245 1301 1265 1175 1184 1196 1273 1319 1249 1254 1305 1272 1159 1189 1203 1143 1200 1247 1331 1371 1313 1231 1167 1121 1130 1172 1101 977 1069 1141 1174 1200 1240 1295 1362 1408 1394 1337 1313 1393 1475 1472 1362 1281 1274 1379 1554 1619 1677 1768 1879 1766 1645 1584 1610 1597 1538 1467 1380 1306 1231 1222 1182 1108 1043 985 975 955 936 900 904 919 862 956 1234 1389 1366 1356 1313 1268 1232 1207 1174 1131 1114 1101 1082 1071 1048 1027 1009 969 905 823 768 768 857 892 885 852 834 820 819 842 833 822 812 805 795 794 792 786 658 650 653 626 789 792
172 250 280 249 201 171 152 134 139 150 151 152 156 178 224 228 223 257 286 329 283 316 352 390 403 431 489 537 590 602 566 592 636 669 708 806 824 830 954 958 904 867 734 665 710 769 798 777 748 764 673 601 436 558 722 928 1147 1213 1162 968 939 1043 1075 1127 1129 1057 1114 1056 1285 1176 1124 1165 1289 1159 1132 1291 1287 1162 1219 1294 1305 1159 1130 1149 1210 1247 1279 1272 1244 1091 974 972 1027 1067 1164 1190 1255 1321 1275 1198 1226 1288 1221 1136 992 1123 1146 1168 1220 1271 1350 1424 1459 1431 1393 1408 1459 1553 1552 1424 1350 1298 1319 1516 1709 1754 1852 1822 1774 1734 1660 1566 1477 1407 1369 1337 1292 1227 1139 1134 1106 1037 974 951 924 929 951 944 889 876 1003 1296 1410 1399 1362 1316 1282 1245 1215 1191 1158 1104 1073 1067 1050 1036 1020 998 933 846 808 789 890 906 877 871 873 872 860 848 839 827 816 812 801 798 794 776 754 628 617 640 635 772 781
152 190 227 269 257 232 218 203 170 191 225 207 232 197 220 261 275 299 297 255 272 327 430 450 452 500 565 625 655 716 629 644 707 766 809 867 945 922 979 931 756 813 713 654 571 700 765 654 550 529 524 429 531 696 886 1069 1158 1090 841 702 651 649 677 767 962 1116 1269 1189 1281 1270 1143 1098 1207 1330 1300 1236 1150 1044 1150 1199 1166 1021 988 1011 1065 1107 1127 1059 1033 958 911 907 949 1006 1071 1113 1167 1263 1239 1228 1314 1285 1241 1156 978 1120 1172 1199 1247 1307 1401 1513 1540 1484 1470 1474 1532 1604 1622 1489 1435 1358 1369 1444 1665 1792 1801 1743 1671 1619 1608 1597 1568 1491 1383 1275 1205 1141 1090 1049 1029 1019 969 953 997 1026 995 957 869 918 1172 1405 1405 1370 1318 1249 1185 1154 1116 1099 1076 1073 1096 1091 1054 997 981 982 920 854 825 884 916 907 898 894 887 877 858 843 832 825 819 813 806 805 788 761 686 601 657 692 642 747 792
235 197 169 189 248 285 249 182 179 198 207 278 277 244 254 287 288 252 214 232 266 319 398 474 532 587 641 690 747 731 677 713 773 864 962 992 1014 988 878 719 737 618 574 605 489 503 621 600 529 398 426 583 717 766 925 1086 980 808 754 534 456 428 458 478 636 801 942 837 981 962 901 871 1122 1133 1146 990 940 861 906 999 1025 872 857 934 1016 1037 957 835 812 856 852 860 941 995 1038 1068 1093 1122 1130 1148 1207 1229 1167 1084 980 1114 1174 1218 1261 1320 1423 1555 1642 1600 1598 1590 1598 1692 1679 1589 1504 1405 1430 1442 1589 1736 1724 1602 1574 1525 1497 1496 1468 1414 1309 1203 1129 1093 1057 1030 997 982 965 959 995 1050 1010 945 860 964 1277 1461 1428 1368 1321 1286 1235 1196 1173 1144 1113 1079 1035 1008 974 946 929 914 913 918 929 938 932 922 912 904 888 872 856 843 833 825 818 812 812 806 800 775 656 730 786 773 668 766 797
149 152 136 171 172 190 176 155 143 159 176 199 216 214 221 261 239 200 204 222 265 382 444 478 528 570 648 737 786 807 772 781 811 920 1029 1120 977 744 676 594 651 621 500 575 559 553 471 473 399 378 543 682 807 900 888 824 701 598 504 390 440 620 772 658 551 529 563 538 624 673 593 680 762 757 740 711 667 645 703 800 800 712 783 850 860 826 749 774 896 917 937 942 1006 1097 1195 1257 1311 1214 1217 1147 1137 1126 1110 1050 995 1111 1165 1217 1266 1320 1397 1504 1613 1619 1581 1633 1692 1745 1725 1606 1519 1505 1527 1543 1595 1655 1686 1628 1553 1464 1401 1333 1322 1321 1298 1167 1052 1021 1003 984 974 961 947 941 959 1023 1032 937 869 989 1312 1436 1424 1367 1321 1282 1221 1154 1109 1086 1057 1056 1045 960 997 1013 993 980 977 970 958 944 938 931 920 906 887 875 857 842 833 829 821 814 817 818 807 717 732 801 804 783 704 792 801
116 117 117 126 132 138 132 131 135 138 151 163 163 185 227 239 244 181 227 261 342 374 420 454 488 552 609 731 831 856 872 879 879 917 1006 1127 1055 837 729 608 504 503 432 535 613 608 560 535 396 463 606 717 858 768 735 680 536 453 376 419 532 564 814 959 877 706 784 851 652 536 485 569 601 613 649 735 741 723 671 605 616 712 735 741 712 735 801 885 947 1009 1064 1088 1122 1166 1387 1490 1388 1285 1219 1216 1220 1190 1132 1074 1028 1119 1183 1226 1263 1309 1364 1407 1420 1430 1490 1554 1619 1682 1680 1625 1586 1596 1615 1648 1669 1677 1636 1597 1587 1549 1498 1443 1385 1294 1226 1171 1048 994 976 960 946 939 931 924 925 934 967 984 878 972 1304 1425 1396 1351 1315 1273 1231 1184 1154 1122 1094 1072 1039 995 1038 1037 1019 999 985 975 975 958 948 939 924 908 894 884 863 840 833 826 823 822 824 818 791 678 784 808 810 710 729 806 801
119 119 119 119 120 131 158 179 170 150 142 144 152 205 234 208 189 169 203 231 381 446 434 489 565 605 643 734 803 846 882 916 944 955 1011 1036 968 733 630 594 536 457 425 563 624 523 507 483 377 427 590 697 684 586 494 432 357 351 466 631 779 731 751 849 1097 1021 811 1072 900 685 534 644 769 846 855 1018 970 798 704 713 677 646 622 629 711 889 978 956 970 1060 1156 1215 1275 1277 1500 1450 1379 1386 1338 1271 1234 1211 1203 1105 1089 1132 1137 1161 1213 1229 1260 1296 1335 1411 1500 1575 1666 1646 1590 1658 1680 1699 1706 1769 1759 1681 1610 1545 1476 1408 1343 1297 1257 1215 1192 1147 1065 999 977 962 944 931 922 914 903 899 899 957 894 961 1260 1427 1391 1368 1320 1282 1242 1198 1153 1115 1076 1054 1042 1055 1087 1117 1115 1094 1078 1046 1017 972 948 938 924 908 900 890 872 842 831 827 824 828 826 791 696 807 814 752 696 714 792 811 809
178 173 126 124 124 130 161 189 184 155 148 157 147 145 149 152 170 193 207 240 261 329 393 480 571 582 613 717 763 801 831 870 949 1022 1116 998 748 744 636 481 473 533 391 422 457 487 320 373 383 442 472 564 558 423 351 335 366 539 608 715 951 983 1114 1008 1125 1134 1038 1206 978 768 599 621 755 944 1049 1125 1026 827 800 854 841 828 841 774 699 799 865 868 889 966 1053 1133 1278 1384 1547 1388 1220 1253 1232 1156 1140 1222 1230 1130 1112 1117 1124 1146 1174 1209 1221 1282 1341 1394 1470 1555 1572 1553 1612 1686 1771 1833 1865 1835 1716 1690 1672 1629 1581 1542 1468 1389 1306 1240 1175 1093 1022 993 980 964 943 931 922 914 903 898 888 917 927 956 1187 1428 1392 1346 1296 1253 1210 1178 1146 1110 1077 1053 1071 1106 1167 1232 1276 1267 1217 1128 1056 1000 955 928 911 905 896 887 875 852 834 832 827 823 784 717 822 807 723 761 811 818 824 831 824
213 190 138 130 129 131 134 140 142 238 264 235 209 184 164 174 211 259 250 239 284 346 406 471 510 543 563 611 662 707 763 830 906 1037 1042 903 742 601 673 555 440 419 390 369 346 337 359 459 573 545 551 480 337 296 325 416 554 693 870 892 913 939 1025 1176 1218 1272 1266 1218 997 774 693 822 746 811 1029 1171 1019 917 962 1070 1062 1048 1076 888 751 719 704 811 901 969 1089 1153 1269 1400 1328 1288 1288 1163 1126 1133 1132 1131 1164 1149 1144 1156 1175 1195 1223 1252 1290 1327 1387 1431 1455 1484 1506 1523 1588 1663 1769 1912 1954 1795 1808 1863 1762 1672 1598 1527 1403 1312 1241 1193 1142 1083 1040 1015 984 963 955 939 930 923 916 906 899 920 936 985 1163 1428 1415 1371 1313 1264 1220 1180 1142 1110 1074 1072 1105 1157 1242 1328 1381 1366 1295 1193 1071 1010 969 934 905 893 885 879 869 850 834 826 811 775 739 746 846 781 759 851 851 847 844 849 842
223 191 154 159 151 141 141 133 129 137 198 230 271 216 200 240 247 283 254 280 315 375 429 439 441 480 547 605 658 701 750 798 875 997 980 851 734 570 480 558 468 332 323 332 292 313 327 344 336 324 330 311 389 456 521 614 552 590 634 779 883 1039 1155 1056 938 1074 1272 1222 1052 792 913 1048 963 832 984 1206 1109 1088 1118 1169 1142 1081 958 911 944 828 716 838 929 1013 1134 1211 1296 1345 1322 1293 1237 1153 1171 1195 1137 1119 1129 1143 1157 1179 1211 1234 1270 1307 1343 1380 1428 1483 1538 1553 1574 1578 1590 1654 1741 1876 2101 1938 1948 1905 1747 1635 1531 1445 1342 1250 1172 1114 1072 1039 1016 996 981 976 972 932 922 915 912 910 907 911 936 976 1146 1443 1434 1397 1340 1275 1223 1178 1137 1103 1104 1093 1109 1152 1241 1337 1380 1350 1256 1138 1036 974 937 911 894 883 876 868 860 848 837 827 815 803 769 766 849 755 769 857 862 856 854 852 855
229 200 172 200 190 167 150 143 137 138 135 178 227 173 166 194 233 247 257 303 354 384 381 364 401 462 531 638 674 721 749 760 798 839 861 818 776 660 455 470 460 342 291 298 309 308 305 351 393 411 337 365 419 426 459 545 538 598 672 790 1026 1104 959 857 811 1045 1235 1213 1103 935 1069 1240 1208 1078 1123 1182 1098 1143 1259 1215 1144 1108 1060 996 933 784 794 890 946 987 1073 1257 1406 1409 1349 1311 1227 1253 1356 1309 1202 1173 1129 1143 1151 1173 1173 1196 1239 1312 1366 1424 1478 1540 1620 1672 1676 1649 1655 1701 1761 1879 2019 1879 1741 1737 1683 1567 1464 1411 1375 1326 1261 1165 1092 1053 1020 1004 992 999 956 931 926 923 913 912 909 923 939 977 1124 1421 1417 1379 1328 1260 1209 1166 1164 1151 1146 1129 1100 1114 1169 1256 1314 1287 1213 1093 988 930 905 891 882 877 865 855 854 855 850 840 840 826 741 822 847 775 726 820 848 865 865 856 864
197 221 259 316 292 235 171 147 146 146 136 142 177 196 191 189 184 187 216 289 247 292 325 399 420 458 531 584 623 608 635 621 622 664 722 714 655 613 501 384 343 299 342 423 466 388 373 425 460 430 393 512 627 584 631 739 659 707 667 852 942 830 728 714 850 985 1041 1151 1141 1007 1161 1241 1188 1153 1145 1059 1046 1123 1204 1335 1230 1121 1053 1075 961 845 849 998 1110 1148 1211 1281 1427 1600 1544 1457 1415 1382 1340 1282 1183 1163 1120 1138 1116 1144 1150 1164 1220 1285 1365 1434 1494 1568 1660 1765 1733 1673 1634 1677 1741 1822 1836 1748 1656 1604 1561 1510 1464 1426 1381 1342 1267 1197 1152 1114 1046 997 989 970 951 941 936 926 920 918 912 933 964 999 1133 1404 1394 1352 1324 1265 1247 1213 1198 1190 1186 1184 1140 1084 1088 1121 1168 1169 1089 1012 950 904 889 884 882 872 863 858 862 855 851 840 818 720 777 833 836 845 817 757 710 844 865 868 873
273 270 350 359 334 274 190 155 149 144 137 163 294 308 286 255 249 251 222 213 244 288 374 425 478 491 507 526 524 513 531 548 529 582 623 604 541 443 335 346 337 415 430 485 572 470 548 460 496 519 512 611 734 712 815 850 800 822 874 900 796 636 697 731 813 875 1045 1198 1201 1169 1193 1102 948 957 1004 944 1055 1188 1277 1377 1255 1149 1225 1162 1061 935 870 994 1034 1160 1266 1335 1541 1470 1359 1264 1270 1272 1279 1241 1156 1089 1081 1117 1105 1107 1129 1151 1204 1264 1344 1418 1479 1553 1602 1624 1624 1608 1620 1599 1690 1721 1744 1637 1564 1519 1426 1397 1358 1300 1242 1193 1183 1184 1159 1111 1067 1020 991 971 959 946 936 932 926 921 910 929 974 1065 1138 1373 1361 1306 1309 1291 1270 1254 1241 1243 1241 1247 1199 1107 1050 1027 1027 1020 993 956 920 889 883 888 888 874 835 809 802 808 801 816 758 788 760 772 807 844 859 844 751 749 850 865 866
363 346 334 284 316 310 211 169 157 153 139 175 276 335 358 346 312 305 278 268 280 329 393 502 551 503 444 457 422 416 463 487 438 424 427 435 333 301 393 536 528 509 622 633 676 644 641 551 580 698 754 702 808 838 900 804 671 679 772 744 621 678 841 827 941 1048 1136 1255 1185 1108 1067 1076 889 783 848 947 1076 1205 1296 1364 1402 1333 1310 1198 1059 909 929 946 963 1049 1184 1357 1575 1571 1453 1292 1229 1172 1131 1144 1166 1102 1063 1069 1064 1064 1104 1147 1180 1241 1292 1356 1416 1467 1479 1530 1499 1535 1587 1537 1583 1632 1721 1675 1592 1531 1473 1455 1385 1325 1307 1295 1284 1266 1189 1078 1014 992 983 970 959 948 938 937 926 918 922 925 962 1104 1155 1288 1300 1256 1260 1241 1234 1263 1310 1335 1315 1303 1244 1159 1081 1020 982 965 943 923 901 890 892 891 888 851 815 813 806 818 827 807 739 797 827 791 753 840 857 850 853 809 747 802 827
443 406 326 266 214 191 178 160 164 156 144 145 246 315 328 377 393 402 402 378 357 314 395 490 448 435 395 389 350 333 392 369 306 269 305 353 434 513 544 652 649 692 720 736 739 737 695 698 798 856 887 869 856 720 762 752 604 541 564 563 672 793 992 1053 1054 1177 1232 1249 1147 1037 910 789 747 696 803 939 1047 1159 1230 1291 1329 1329 1327 1256 1110 956 1078 1087 1064 1024 1089 1230 1339 1441 1501 1425 1321 1215 1171 1122 1113 1115 1056 1029 1038 1059 1101 1140 1168 1184 1173 1193 1247 1343 1304 1299 1373 1452 1466 1466 1527 1600 1625 1638 1546 1476 1450 1424 1386 1375 1374 1366 1343 1245 1140 1066 1042 1020 997 977 963 949 942 938 927 926 929 927 955 1101 1151 1233 1236 1182 1196 1186 1196 1245 1309 1347 1342 1326 1270 1177 1082 1025 979 950 932 911 901 899 901 896 870 836 830 837 843 813 771 752 768 823 837 759 780 808 841 851 851 856 817 764 744
407 356 309 247 188 168 177 170 178 164 150 146 183 211 231 283 334 348 333 327 352 378 391 392 365 331 339 307 241 238 234 236 319 387 502 558 564 600 587 561 507 621 626 632 653 735 839 859 957 877 761 717 711 582 533 644 581 500 526 719 856 988 1058 1012 977 942 1058 1151 957 1038 1068 945 665 689 784 886 1001 1081 1164 1225 1218 1201 1174 1197 1105 1010 1095 1212 1184 1123 1150 1253 1298 1285 1285 1249 1218 1209 1199 1185 1136 1074 1042 1027 1052 1071 1104 1130 1157 1178 1178 1186 1222 1312 1296 1279 1287 1297 1336 1429 1496 1527 1520 1544 1551 1470 1471 1438 1438 1457 1447 1395 1310 1223 1191 1148 1096 1067 1034 994 974 967 952 944 942 938 952 979 1002 1059 1143 1188 1205 1157 1148 1154 1157 1189 1242 1276 1282 1265 1213 1117 1051 1003 970 952 931 919 910 893 875 871 863 844 832 799 770 774 788 790 812 848 812 797 748 775 818 850 857 853 855 841 787
436 390 326 280 206 190 196 204 215 184 168 154 151 162 171 238 234 213 190 190 231 261 266 241 260 232 235 226 195 223 268 322 425 466 486 474 434 475 432 488 428 467 490 568 605 634 750 776 857 826 613 514 538 444 442 473 474 542 676 785 823 982 1009 897 816 762 897 1006 754 719 831 769 568 640 767 947 1065 1010 996 997 999 1056 1093 1174 1151 1081 1186 1265 1396 1223 1274 1570 1565 1534 1516 1392 1253 1172 1152 1143 1162 1116 1070 1046 1039 1058 1092 1137 1178 1249 1315 1264 1292 1335 1391 1473 1488 1425 1387 1473 1462 1472 1479 1463 1438 1410 1368 1349 1318 1311 1326 1315 1236 1130 1075 1069 1090 1121 1055 1016 997 984 975 980 1006 1063 1128 1120 1115 1126 1151 1155 1180 1150 1116 1129 1117 1130 1156 1176 1179 1154 1115 1064 1024 985 960 945 930 907 893 879 853 855 851 832 828 789 837 843 823 833 862 832 801 801 775 771 744 813 837 849 852 847 847
459 405 325 275 256 258 233 275 278 253 225 206 166 185 205 209 181 161 161 170 170 175 179 182 189 193 190 202 236 235 256 265 327 340 322 266 312 370 371 427 354 411 502 575 513 508 543 593 681 663 562 440 398 478 596 672 646 638 620 633 660 813 779 710 650 707 722 759 707 570 612 547 616 777 921 974 902 819 799 846 942 1108 1267 1317 1223 1188 1241 1423 1557 1354 1510 1635 1487 1380 1297 1182 1086 1037 1025 1023 1048 1082 1074 1038 1027 1055 1093 1143 1190 1248 1291 1322 1351 1344 1378 1442 1479 1498 1494 1444 1457 1475 1488 1466 1433 1420 1388 1332 1271 1203 1136 1091 1094 1123 1129 1141 1153 1130 1057 1033 1020 1008 999 1031 1149 1282 1377 1363 1334 1260 1216 1157 1114 1129 1109 1100 1108 1099 1104 1119 1098 1087 1063 1025 997 988 966 941 929 907 912 901 886 881 882 862 814 840 859 840 826 867 869 820 805 810 803 811 760 793 824 830 834 844 852
528 467 373 324 336 350 342 384 369 321 277 246 211 194 175 175 161 164 168 180 185 190 198 201 204 262 286 286 286 291 287 269 256 227 237 244 254 273 277 391 336 375 413 418 403 373 363 450 485 453 409 342 387 452 499 547 560 449 439 448 479 538 516 496 506 498 498 471 495 526 497 538 699 794 858 830 713 699 792 891 1013 1257 1367 1321 1252 1375 1442 1415 1445 1473 1560 1473 1302 1146 1077 1065 1056 1072 1137 1118 1014 1018 1010 994 1009 1043 1082 1124 1182 1252 1336 1396 1445 1423 1410 1449 1521 1578 1584 1513 1465 1475 1471 1449 1437 1413 1374 1332 1277 1239 1182 1187 1202 1187 1181 1184 1168 1101 1057 1037 1037 1036 1021 1051 1217 1420 1624 1731 1625 1463 1302 1191 1116 1088 1088 1080 1108 1111 1097 1091 1075 1054 1038 1020 1008 999 979 954 919 918 928 908 897 882 845 816 841 883 883 860 874 879 853 816 825 834 829 790 749 798 829 827 829 830 847
552 494 417 373 366 351 404 424 362 317 296 270 252 221 198 171 169 173 184 189 192 202 235 255 216 219 277 351 367 353 368 330 291 291 311 341 373 411 351 328 286 297 297 300 304 273 290 307 313 329 300 446 484 477 404 413 441 521 539 568 553 508 500 517 539 587 587 608 633 722 716 644 591 589 618 628 726 849 928 1068 1203 1278 1202 1177 1221 1327 1348 1325 1311 1272 1269 1178 1110 1143 1285 1427 1288 1243 1221 1195 1065 1025 1006 979 996 1054 1070 1107 1188 1274 1348 1405 1463 1440 1437 1449 1498 1562 1517 1599 1487 1451 1449 1447 1429 1401 1377 1353 1320 1277 1274 1291 1265 1251 1227 1177 1115 1070 1049 1037 1028 1023 1022 1028 1137 1355 1542 1748 1760 1542 1319 1186 1110 1063 1063 1070 1093 1119 1118 1103 1078 1057 1043 1029 1009 989 965 928 933 940 938 891 844 828 831 836 875 908 899 894 888 856 823 841 846 860 852 825 806 803 845 833 829 830 833
389 449 390 315 297 262 301 388 369 336 293 294 263 257 247 222 213 196 204 244 270 297 335 324 322 255 217 249 364 482 438 386 371 375 398 406 489 520 480 440 369 312 302 290 331 361 384 393 409 515 520 423 415 503 543 628 702 660 633 682 769 855 865 852 762 819 830 805 842 834 1031 1025 851 791 641 589 668 816 949 1025 1027 1053 1045 1026 1089 1130 1262 1508 1527 1442 1372 1202 1371 1462 1541 1578 1341 1246 1171 1161 1087 1054 1024 990 986 1024 1069 1131 1223 1307 1389 1479 1590 1437 1406 1409 1439 1469 1456 1444 1437 1437 1444 1436 1411 1386 1372 1355 1328 1315 1454 1487 1360 1268 1180 1128 1092 1078 1060 1044 1035 1029 1025 1025 1050 1152 1239 1392 1439 1359 1220 1138 1090 1059 1049 1070 1088 1091 1104 1108 1080 1049 1041 1029 1010 983 949 931 935 934 901 846 853 885 874 865 924 924 910 888 861 836 833 848 858 841 860 844 789 796 849 839 831 826 828
284 396 405 280 238 245 225 322 355 342 298 243 251 285 265 283 266 257 254 230 249 270 285 313 339 293 234 239 258 396 499 453 433 403 414 439 494 606 520 458 390 379 449 509 499 589 535 498 504 625 649 533 496 410 447 430 469 520 665 749 891 1054 1124 1146 1144 1178 1149 1132 1228 1046 1205 1214 1152 1088 813 687 607 706 796 817 791 837 874 916 971 1053 1154 1286 1370 1480 1507 1307 1500 1615 1573 1408 1323 1304 1191 1117 1090 1064 1024 988 967 1006 1067 1138 1232 1327 1404 1448 1515 1432 1398 1397 1419 1433 1431 1426 1428 1441 1461 1446 1416 1408 1431 1422 1452 1493 1589 1467 1334 1232 1173 1133 1125 1118 1092 1064 1052 1040 1032 1031 1024 1036 1056 1101 1135 1126 1076 1041 1045 1027 1021 1018 1037 1047 1062 1073 1065 1052 1031 1018 986 976 970 952 944 928 878 885 945 934 850 903 936 895 860 851 865 843 841 843 836 830 819 797 785 782 819 829 825 826 828
246 265 293 236 222 184 182 278 281 298 260 243 289 231 255 307 291 304 299 293 259 270 294 315 319 314 293 281 323 301 292 332 351 334 364 407 420 447 417 426 473 577 601 684 702 651 692 617 557 613 682 651 726 558 615 637 523 463 656 789 914 1015 1174 1187 1230 1277 1263 1277 1302 1205 1338 1308 1262 1094 895 773 752 669 693 778 893 1046 1118 1112 1021 1012 1127 1178 1218 1267 1360 1465 1592 1569 1433 1306 1235 1201 1142 1088 1080 1057 1044 1026 951 981 1044 1119 1212 1300 1354 1398 1414 1402 1391 1405 1421 1445 1437 1422 1446 1473 1491 1492 1484 1480 1474 1486 1536 1534 1523 1407 1317 1236 1195 1166 1145 1133 1111 1091 1075 1057 1042 1032 1020 1018 1026 1024 1023 1029 999 991 997 1004 999 989 1007 1024 1027 1034 1029 1033 1024 999 995 986 978 962 923 903 884 923 944 868 871 948 934 886 895 903 904 868 832 824 815 809 804 804 788 799 805 812 817 822 830
151 160 154 160 159 158 160 185 198 229 207 208 214 218 238 252 261 291 365 338 327 291 312 328 351 366 335 337 328 349 288 311 362 361 365 371 406 472 577 600 569 562 639 738 769 754 767 701 702 665 747 774 809 782 719 750 655 505 558 721 853 992 1116 1165 1215 1288 1314 1312 1311 1386 1380 1268 1194 1112 992 956 897 762 715 836 954 1159 1256 1277 1224 1098 1211 1220 1194 1175 1153 1270 1384 1432 1392 1403 1323 1214 1103 1074 1094 1087 1058 1064 982 976 1045 1106 1174 1231 1290 1381 1376 1396 1456 1477 1496 1461 1430 1457 1498 1537 1558 1576 1570 1551 1518 1477 1426 1416 1405 1360 1294 1255 1255 1219 1174 1162 1146 1136 1126 1091 1063 1052 1042 1028 1024 1020 1020 1024 1004 992 987 984 982 982 987 1005 1004 1011 1005 996 997 990 1006 998 964 940 913 897 935 940 897 898 934 954 913 911 927 885 839 825 820 820 818 817 810 799 788 796 804 804 813 823 828
141 143 148 153 158 159 164 165 180 187 189 201 200 210 233 234 266 324 425 451 392 359 371 402 477 478 396 388 400 398 332 300 336 408 452 600 714 751 813 791 681 646 550 591 620 748 804 835 866 769 792 875 910 908 859 843 839 699 550 605 786 1046 1164 1181 1139 1171 1226 1283 1349 1433 1493 1382 1306 1163 1080 1093 1075 1056 904 929 1099 1236 1335 1290 1227 1190 1248 1287 1312 1304 1177 1120 1085 1106 1116 1155 1115 1070 1064 1130 1134 1106 1083 1106 966 994 1060 1109 1156 1205 1252 1290 1325 1370 1394 1382 1390 1380 1431 1498 1566 1631 1677 1660 1650 1613 1554 1489 1458 1405 1352 1329 1313 1304 1283 1245 1216 1223 1220 1210 1188 1146 1090 1060 1042 1030 1022 1017 1010 1011 1006 995 989 987 987 988 981 983 995 1004 991 982 989 1005 984 955 932 916 924 942 941 891 928 960 958 935 903 942 942 849 834 826 838 836 830 814 804 807 799 802 838 843 832 826 829
246 186 154 151 201 203 227 233 225 203 177 175 184 214 235 259 316 425 536 546 496 472 511 519 542 489 454 457 478 478 462 440 357 323 342 432 645 770 808 824 818 796 731 829 669 659 724 767 881 949 882 935 994 1023 1027 884 807 708 600 521 667 953 1067 1039 975 981 1079 1117 1164 1170 1202 1316 1433 1265 1159 1198 1234 1142 1062 1025 1117 1191 1272 1337 1309 1268 1294 1312 1349 1445 1317 1202 1204 1093 1023 1003 946 946 1068 1134 1138 1155 1147 972 897 1000 1052 1079 1109 1148 1190 1210 1256 1297 1297 1306 1350 1409 1478 1558 1614 1691 1812 1766 1724 1642 1605 1555 1500 1467 1428 1381 1327 1272 1252 1249 1243 1264 1288 1248 1190 1139 1106 1077 1060 1042 1026 1015 1009 1005 1007 1005 992 989 991 983 979 976 974 987 979 988 998 1002 969 955 942 952 953 941 904 930 957 961 946 943 934 945 901 878 905 893 869 826 816 811 811 803 818 865 888 873 827 831 831
342 240 171 157 161 262 327 281 239 241 224 216 188 189 219 264 316 427 525 596 624 603 576 575 569 527 526 548 554 535 528 484 464 479 485 487 454 531 661 805 928 908 856 888 852 839 832 834 861 973 1015 969 1041 1112 1063 947 893 803 682 562 543 673 851 876 853 863 904 1000 1040 1155 1134 1201 1362 1462 1465 1401 1282 1253 1079 1148 1226 1262 1312 1355 1475 1425 1324 1245 1227 1284 1446 1439 1271 1334 1253 1304 1124 946 965 1141 1134 1160 1019 834 869 1014 1027 1041 1071 1112 1135 1167 1215 1252 1281 1322 1373 1427 1493 1610 1712 1757 1861 1999 1816 1838 1770 1607 1495 1449 1413 1368 1328 1287 1276 1299 1290 1301 1318 1243 1181 1162 1130 1094 1065 1047 1034 1033 1018 1003 999 996 993 987 984 981 983 975 972 973 984 984 986 977 973 987 968 937 922 932 943 953 956 949 944 944 915 898 875 928 897 849 825 825 834 831 826 858 888 900 896 836 829 835 843
297 226 185 179 164 240 367 339 286 304 312 287 247 219 198 244 288 368 508 608 603 628 651 654 598 596 601 615 601 593 565 618 766 738 690 750 606 499 519 656 682 709 815 919 959 977 924 984 995 988 1087 1108 1114 1080 984 892 819 799 717 595 571 603 640 702 767 918 1058 1224 1283 1384 1215 1187 1273 1474 1389 1282 1231 1179 1187 1225 1333 1337 1403 1411 1316 1276 1323 1241 1133 1199 1280 1352 1404 1385 1351 1318 1241 1017 889 1100 1101 1041 839 820 883 955 995 1034 1064 1089 1114 1142 1212 1285 1330 1370 1401 1438 1500 1605 1716 1828 1941 2070 1868 1773 1694 1600 1508 1467 1448 1416 1388 1351 1342 1354 1309 1277 1256 1222 1203 1234 1156 1111 1075 1071 1077 1059 1029 1012 1004 998 993 988 982 976 983 973 970 968 969 945 959 943 938 939 927 957 958 958 963 950 942 942 945 922 934 942 918 864 834 832 855 867 871 869 869 915 909 881 839 829 827 836 846
361 269 230 205 209 201 295 366 367 407 423 356 308 302 248 231 234 275 354 470 480 595 678 672 659 708 676 660 653 672 797 786 871 938 900 929 783 638 653 578 533 590 725 777 955 1057 1037 1065 1135 1121 1193 1246 1176 1080 972 900 802 741 672 604 649 835 808 651 812 1019 1057 1098 1168 1289 1359 1390 1398 1283 1304 1219 1099 1118 1256 1278 1275 1226 1221 1265 1140 1133 1245 1227 1105 1103 1216 1405 1486 1321 1238 1160 1125 1073 859 1048 1025 886 820 877 954 979 1015 1052 1083 1129 1149 1174 1210 1263 1314 1370 1402 1442 1502 1574 1654 1752 1863 1927 1820 1746 1656 1587 1548 1515 1489 1463 1450 1420 1380 1411 1349 1305 1265 1236 1199 1172 1154 1116 1110 1101 1079 1051 1034 1017 1008 1001 995 991 985 978 974 970 966 965 973 947 920 936 951 953 939 955 939 936 939 929 929 937 931 940 941 929 852 844 861 883 916 894 863 865 917 918 868 839 833 831 829 832 842
380 337 329 247 304 235 315 373 354 397 467 400 396 379 335 322 281 243 234 255 311 371 441 533 589 705 726 696 734 907 907 849 922 1025 1033 970 767 827 894 742 720 617 597 614 766 813 809 918 1065 1155 1222 1257 1240 1128 1018 947 883 801 701 632 769 949 951 767 808 946 888 999 1146 1243 1336 1332 1328 1190 1127 1043 920 1028 1163 1140 1184 1124 1028 1019 992 1088 1235 1216 1101 1034 1136 1284 1423 1378 1385 1259 1037 1011 838 944 788 812 855 957 1034 1060 1073 1096 1131 1147 1171 1205 1236 1296 1332 1381 1411 1446 1492 1546 1620 1669 1713 1736 1734 1672 1610 1579 1566 1549 1532 1507 1451 1409 1359 1344 1316 1285 1249 1239 1197 1160 1163 1109 1092 1079 1066 1057 1043 1029 1019 1010 1002 993 988 981 975 971 966 964 978 961 936 952 957 958 941 940 954 937 947 943 934 932 935 941 922 861 861 890 925 925 897 886 900 916 924 890 895 853 838 840 842 846 837
566 452 381 289 342 274 281 293 333 354 412 464 494 464 424 408 400 370 327 283 247 259 283 308 404 599 581 584 640 809 668 664 885 898 971 1040 988 985 1006 908 786 740 812 738 627 635 782 921 963 955 1089 1101 1084 1167 1039 942 896 833 763 679 870 1021 964 826 765 773 829 954 1103 1254 1255 1203 1152 1151 1135 992 872 865 905 1051 1107 1037 962 889 957 1144 1070 1070 1067 1003 1002 1059 1179 1318 1260 1278 1120 920 841 908 769 826 918 984 1015 1051 1093 1120 1158 1196 1205 1231 1278 1339 1392 1421 1417 1463 1520 1575 1639 1687 1715 1719 1692 1646 1602 1576 1560 1558 1559 1486 1440 1401 1368 1348 1351 1325 1288 1240 1188 1151 1127 1111 1089 1079 1073 1060 1044 1032 1021 1011 1002 992 988 982 977 971 967 961 969 979 956 950 951 958 955 942 951 936 945 937 932 931 934 938 877 888 908 934 929 922 907 919 920 926 923 926 888 857 856 859 864 855 849
555 478 385 339 367 287 319 375 382 400 419 561 648 594 551 551 575 506 459 404 360 338 311 297 278 308 352 352 450 537 466 514 667 813 996 1050 1041 1145 1146 1060 956 922 986 910 778 825 683 701 738 758 835 868 964 1187 1152 1044 1021 923 833 723 850 1110 1113 1029 980 929 1045 1015 1086 1148 1114 1069 904 1096 1184 977 845 816 939 969 969 966 849 825 901 975 1064 1125 1134 1061 948 957 1065 1235 1182 1177 1049 940 837 872 720 838 967 1032 1068 1075 1122 1165 1176 1197 1260 1282 1309 1339 1370 1390 1425 1473 1541 1610 1678 1763 1830 1834 1793 1726 1658 1602 1562 1535 1508 1477 1452 1439 1445 1480 1491 1424 1338 1259 1208 1166 1140 1130 1106 1095 1085 1064 1050 1035 1024 1010 1002 996 990 981 976 972 969 963 961 1001 960 951 958 958 955 946 943 938 936 934 933 930 938 897 886 913 927 924 913 911 919 928 928 927 929 919 897 903 898 900 894 887 881
586 529 513 433 378 313 344 464 598 587 578 666 675 704 714 690 747 715 634 628 617 479 425 406 409 427 467 429 344 343 368 479 636 805 852 796 851 1061 911 933 1103 1128 1131 1068 995 984 840 753 811 786 866 912 980 1123 1209 1147 1046 965 879 847 916 1152 1310 1230 1036 1097 1224 1111 1177 1223 1009 850 872 1105 1092 971 880 752 801 857 882 776 785 896 1033 1157 1355 1391 1228 1116 1008 876 938 1101 1077 1055 996 838 781 716 732 838 971 1040 1078 1114 1205 1256 1270 1230 1269 1310 1343 1384 1393 1414 1444 1496 1555 1622 1707 1818 1960 1934 1854 1816 1728 1647 1585 1537 1492 1491 1535 1609 1628 1607 1571 1510 1377 1290 1234 1187 1179 1159 1129 1115 1098 1081 1058 1038 1028 1015 1017 1007 995 980 978 977 974 971 963 959 952 959 962 966 953 947 943 941 935 934 942 936 916 906 933 948 940 928 926 926 933 932 932 929 935 932 921 909 896 892 888 878 877
557 514 495 441 417 366 400 423 495 555 604 538 506 562 564 566 644 715 725 739 767 663 569 569 631 627 639 582 514 443 419 379 381 495 568 601 830 773 727 868 995 894 911 871 991 1037 915 853 931 1025 1017 1107 1144 1118 1137 1088 1049 1052 1105 1056 966 1013 1103 1250 1145 1137 1288 1290 1332 1337 1172 1018 788 809 858 850 951 817 736 893 796 719 859 1065 1249 1358 1473 1387 1202 1126 1031 922 811 885 984 942 952 784 678 709 732 766 826 896 1019 1110 1227 1298 1352 1328 1295 1344 1385 1425 1448 1460 1474 1508 1554 1620 1704 1816 1906 1864 1830 1795 1716 1652 1593 1547 1522 1541 1691 1800 1834 1764 1665 1544 1423 1321 1254 1216 1203 1186 1160 1136 1114 1089 1072 1047 1040 1027 1025 1007 993 991 990 985 983 981 974 968 965 964 962 977 958 951 944 940 935 934 943 917 900 936 948 960 955 938 939 937 946 939 935 941 961 974 948 922 904 893 887 877 893
489 427 427 421 386 375 328 308 330 393 470 406 400 417 391 414 454 520 542 637 734 768 764 756 784 805 786 684 601 550 580 551 424 409 376 446 577 536 651 665 824 849 703 672 790 779 825 1044 1103 1198 1238 1153 1022 1003 964 983 945 1072 1211 1168 1211 1194 1285 1333 1339 1363 1363 1422 1348 1280 1299 1150 1012 785 706 737 922 825 661 699 706 786 949 1091 1150 1242 1238 1344 1372 1132 982 919 898 912 824 819 887 727 664 693 727 799 805 843 893 963 1090 1169 1201 1246 1317 1372 1415 1456 1500 1498 1484 1508 1546 1594 1649 1718 1766 1753 1730 1705 1666 1613 1588 1577 1567 1630 1781 1973 1995 1907 1747 1648 1565 1438 1320 1257 1248 1223 1208 1190 1185 1169 1096 1061 1065 1065 1053 1032 1010 1005 1002 997 995 993 988 982 976 972 966 970 958 953 948 939 938 927 909 899 910 933 951 961 967 963 963 964 962 975 954 971 1000 1013 1002 951 929 918 894 886 902
400 354 439 400 383 428 363 298 291 317 330 316 311 309 300 310 322 365 413 485 602 687 686 664 685 749 856 767 750 735 675 566 634 615 505 448 439 437 465 469 552 633 589 655 705 656 754 829 1009 1171 1163 1094 885 840 832 810 898 1106 1142 1072 1128 1037 1183 1114 1201 1365 1224 1190 1235 1019 957 1038 1174 1043 857 655 796 710 633 732 860 936 929 940 980 1070 1258 1493 1335 1123 1196 1267 1197 1126 1006 805 783 711 647 672 763 882 872 899 946 984 1050 1120 1191 1301 1368 1413 1452 1479 1528 1540 1498 1487 1517 1546 1586 1637 1664 1658 1654 1646 1619 1606 1607 1607 1633 1709 1840 1986 2063 1935 1685 1646 1571 1465 1341 1321 1314 1330 1336 1320 1284 1236 1136 1080 1100 1122 1096 1057 1029 1017 1011 1014 1012 1008 1002 993 984 981 973 970 958 951 946 963 952 925 918 909 917 937 955 961 970 967 960 957 971 977 987 999 1028 1081 1090 995 953 931 905 903 899
308 377 404 345 346 365 345 310 251 288 270 258 258 282 331 346 352 341 345 400 485 527 549 568 645 762 942 939 895 850 774 774 858 832 726 640 555 682 669 550 485 469 477 560 581 628 690 857 1016 1027 898 1013 861 767 732 804 975 1051 1087 971 992 915 944 987 1203 1172 970 1069 1076 1132 897 902 1104 1070 856 653 632 644 705 802 839 838 823 882 980 1124 1276 1370 1340 1373 1338 1234 1032 943 889 854 711 738 671 647 857 953 946 948 988 1018 1068 1129 1207 1310 1413 1494 1567 1591 1582 1589 1552 1533 1505 1520 1548 1570 1589 1595 1599 1598 1593 1606 1639 1654 1700 1777 1791 1812 1863 1808 1738 1599 1505 1426 1362 1355 1400 1448 1445 1385 1309 1250 1173 1108 1122 1130 1100 1056 1044 1037 1029 1028 1030 1022 1023 1008 991 985 981 977 969 960 957 959 947 933 931 928 934 965 970 966 965 961 956 951 961 985 1013 1043 1097 1165 1106 1004 960 929 923 923 904
289 302 342 395 297 268 267 277 261 233 259 273 325 359 449 508 496 490 475 406 378 418 452 548 746 856 972 964 925 891 911 964 1049 1028 958 887 688 818 911 708 705 711 583 502 495 564 740 752 817 786 730 807 758 725 659 762 819 862 1004 966 816 817 983 1166 1265 1065 924 826 867 1023 838 834 1131 996 805 619 669 771 831 814 712 738 870 1033 1084 1050 1056 1183 1421 1363 1233 1254 1191 1211 1021 857 676 722 646 693 898 981 981 1010 1037 1064 1108 1172 1246 1347 1438 1540 1644 1736 1708 1666 1611 1543 1496 1503 1519 1540 1552 1588 1595 1605 1616 1640 1682 1709 1712 1822 1768 1752 1800 1683 1609 1513 1462 1433 1383 1429 1535 1617 1596 1474 1367 1278 1214 1172 1165 1165 1128 1103 1096 1070 1058 1052 1041 1033 1043 1026 1021 994 991 987 983 974 972 968 970 963 953 951 953 971 979 989 992 978 974 966 968 1011 1040 1023 1030 1047 1007 969 951 949 944 923 921
321 279 321 375 314 252 220 231 225 254 305 352 418 523 573 635 670 748 652 578 438 386 446 578 616 695 753 762 758 769 786 934 977 1059 1081 984 838 931 1023 936 875 917 822 675 565 581 517 539 560 599 630 650 594 604 613 656 637 684 705 748 773 856 1055 1196 1381 1237 1032 1023 848 729 693 752 940 736 579 624 722 731 690 650 667 725 856 928 891 884 926 1044 1228 1292 1414 1433 1345 1220 1062 950 701 623 797 867 909 940 987 1016 1038 1071 1129 1203 1294 1383 1455 1531 1620 1697 1739 1696 1639 1557 1492 1520 1551 1584 1594 1612 1636 1657 1676 1695 1760 1789 1778 1829 1732 1703 1658 1622 1587 1537 1493 1441 1406 1478 1579 1620 1599 1503 1385 1294 1237 1221 1197 1191 1180 1148 1130 1107 1080 1061 1048 1046 1060 1072 1064 1025 1009 1001 997 985 982 982 976 974 966 965 966 973 978 980 991 991 982 964 966 987 982 982 980 980 974 960 961 958 939 932 919
359 301 264 365 340 262 213 252 297 292 354 454 493 553 649 722 758 842 772 642 528 528 510 486 477 516 543 586 618 645 705 809 877 993 1098 1052 978 1000 928 954 1018 998 968 757 646 767 709 799 772 688 591 681 735 656 733 722 740 798 813 930 930 1053 1177 1301 1328 1228 1246 1297 1113 925 714 604 708 551 635 676 586 595 632 680 705 712 716 743 781 891 973 1020 1019 1086 1293 1414 1161 964 821 744 620 706 833 845 890 942 967 1000 1045 1083 1127 1208 1306 1362 1421 1491 1558 1626 1669 1640 1600 1544 1474 1501 1553 1622 1666 1665 1677 1706 1741 1759 1815 1838 1839 1835 1744 1692 1656 1606 1564 1518 1490 1483 1475 1488 1515 1540 1530 1446 1330 1289 1266 1236 1221 1207 1198 1169 1126 1126 1133 1102 1095 1099 1097 1082 1071 1037 1022 1010 1000 992 985 981 977 972 970 968 970 971 972 975 992 1001 991 983 984 984 979 973 970 976 983 974 968 966 964 945 940
347 322 270 282 273 208 265 398 407 384 428 478 477 522 621 615 660 802 718 628 593 596 551 468 549 673 679 742 759 770 882 871 976 1072 1052 975 915 780 721 883 977 831 771 805 813 893 953 923 954 945 823 874 858 814 930 915 919 1014 950 1147 1154 1226 1295 1294 1158 1024 946 977 1012 954 778 604 519 606 557 573 703 766 858 927 966 1030 933 855 918 1120 1310 1365 1344 1148 1195 1443 1199 1034 1102 916 684 684 793 877 863 890 936 977 1045 1088 1136 1192 1276 1339 1396 1444 1489 1569 1604 1577 1514 1479 1475 1492 1541 1621 1688 1721 1725 1742 1779 1818 1875 1916 1892 1862 1751 1680 1641 1598 1565 1540 1538 1539 1539 1522 1477 1448 1421 1372 1338 1313 1283 1255 1242 1223 1202 1175 1179 1168 1158 1143 1120 1102 1083 1065 1051 1039 1028 1016 1003 993 993 985 980 980 977 976 987 973 982 1003 1013 1016 1008 1009 997 979 970 972 977 982 989 978 975 981 956 945 951
344 290 260 229 193 210 274 352 414 398 337 347 389 467 536 514 536 651 801 761 690 640 646 548 553 639 675 775 871 915 998 1032 1068 1066 968 888 820 799 620 822 960 937 763 625 695 722 912 842 715 829 865 751 790 870 930 1000 1048 1220 1204 1261 1336 1171 1014 981 1103 1082 883 746 888 738 680 603 496 519 626 757 905 943 986 1188 1287 1302 1186 1145 1001 1067 1221 1377 1481 1275 1197 1436 1390 1229 1244 1006 795 623 656 852 768 950 1009 1014 1041 1094 1145 1202 1252 1303 1355 1418 1477 1562 1593 1567 1531 1482 1464 1481 1535 1611 1661 1708 1744 1785 1825 1860 1920 1980 1964 1877 1810 1751 1675 1646 1635 1620 1605 1580 1558 1507 1484 1457 1446 1420 1369 1318 1313 1285 1266 1258 1232 1209 1188 1168 1149 1127 1108 1099 1096 1085 1067 1052 1040 1026 1024 1020 1006 996 990 989 993 986 978 976 989 1007 1030 1035 1008 1003 979 974 981 973 969 967 970 968 966 952 956 960 959
358 310 250 194 189 221 249 290 301 290 293 359 391 415 505 454 418 531 600 608 553 610 626 671 658 720 755 791 855 898 975 1039 1085 1039 905 798 686 646 566 709 878 860 812 614 555 678 696 694 615 697 683 717 800 710 760 702 831 1011 1175 1205 1291 1210 986 809 770 865 900 682 727 836 786 657 454 609 765 895 888 838 890 1066 1156 1101 1194 1275 1237 1174 1243 1315 1422 1323 1273 1176 1131 1002 919 1092 894 767 606 596 739 871 995 1026 1060 1114 1146 1184 1225 1279 1339 1395 1455 1522 1541 1537 1562 1513 1467 1470 1571 1627 1674 1731 1775 1827 1871 1913 1959 2002 2070 1933 1895 1807 1766 1742 1702 1663 1633 1600 1551 1520 1491 1511 1500 1402 1329 1356 1329 1310 1285 1269 1253 1224 1191 1168 1153 1140 1133 1140 1135 1118 1091 1073 1062 1068 1062 1036 1012 1014 998 1000 995 986 979 982 986 1001 1014 1013 1005 1013 996 979 973 971 970 968 965 956 942 956 964 961 959
318 224 192 180 219 254 286 281 240 246 285 285 297 322 365 360 378 457 434 419 422 462 487 532 597 674 823 938 979 987 914 861 898 971 920 813 726 620 514 596 825 766 646 680 512 527 559 570 594 690 781 800 695 588 642 771 899 1048 1109 917 984 951 1003 821 633 756 768 597 727 634 776 666 448 576 785 762 687 668 704 873 818 770 848 1030 1031 905 885 963 1060 924 902 790 743 712 725 748 709 642 607 603 772 793 899 1019 1046 1083 1109 1154 1201 1246 1281 1337 1403 1493 1546 1510 1473 1446 1461 1562 1569 1614 1672 1742 1806 1883 1916 1953 2016 2076 2154 2082 1943 1913 1871 1813 1785 1743 1683 1618 1565 1569 1585 1511 1388 1352 1416 1414 1396 1362 1345 1315 1262 1237 1214 1193 1178 1179 1174 1166 1149 1127 1094 1073 1052 1037 1033 1024 1015 1025 1030 1015 998 994 986 990 989 999 1001 1022 1005 1006 986 978 976 976 978 975 959 978 981 973 963 963 966
268 210 173 183 196 196 198 217 231 271 295 296 286 287 299 289 326 355 361 350 420 443 450 493 536 613 731 791 834 861 791 741 690 866 926 832 819 675 533 481 680 649 599 479 480 606 640 671 742 778 731 606 531 641 799 953 1014 1154 1087 951 784 659 769 654 586 629 553 655 657 522 582 466 500 589 675 589 537 518 501 526 555 562 628 709 680 602 586 606 643 586 546 530 518 510 511 517 533 568 704 799 920 1014 896 1014 1039 1055 1104 1157 1208 1275 1323 1369 1431 1481 1503 1372 1313 1381 1467 1539 1556 1614 1671 1752 1818 1870 1940 2007 2085 2177 2208 2186 2078 2064 1976 1912 1863 1794 1715 1652 1627 1637 1535 1444 1380 1394 1453 1462 1473 1411 1400 1345 1295 1267 1244 1224 1218 1212 1202 1187 1147 1122 1103 1082 1066 1049 1039 1030 1023 1026 1042 1019 1028 1019 1003 1001 994 1002 1013 1033 1026 1004 986 989 985 983 975 973 971 996 1009 1002 984 968 974
218 167 193 237 247 274 268 301 286 314 396 418 378 368 375 350 333 385 372 437 468 511 555 561 596 623 717 709 650 671 640 556 574 748 798 721 688 638 588 453 485 499 440 510 553 548 627 652 619 608 527 597 685 660 757 875 813 1019 894 753 869 719 607 663 475 575 621 480 442 454 436 537 672 669 595 465 408 391 399 407 425 443 471 472 454 449 455 457 469 470 472 495 533 566 619 589 541 612 798 837 955 1045 1007 1030 1111 1097 1095 1135 1197 1258 1351 1446 1451 1325 1204 1218 1267 1345 1459 1544 1610 1658 1691 1826 1863 1935 2029 2143 2240 2198 2371 2308 2301 2216 2124 2004 1918 1840 1758 1727 1693 1593 1528 1441 1433 1444 1508 1539 1516 1459 1412 1413 1331 1296 1270 1267 1255 1253 1224 1190 1146 1125 1112 1096 1088 1069 1054 1047 1038 1056 1069 1057 1053 1044 1024 1010 1011 1012 1022 1038 1035 1017 994 997 995 973 974 981 996 1017 1054 1061 1019 981 979
166 168 188 214 242 263 281 305 332 379 517 558 548 530 492 446 447 533 522 509 582 659 673 705 687 721 741 667 549 536 574 511 445 558 687 746 642 525 492 518 413 424 552 545 435 524 500 466 491 575 577 582 577 663 740 799 701 849 692 626 690 759 581 498 433 483 468 524 562 449 419 433 464 463 441 382 385 398 419 412 408 420 431 428 432 447 514 580 635 634 594 611 602 644 718 720 636 597 612 591 660 927 1041 1021 1004 969 909 906 889 897 961 1022 1029 1043 1075 1111 1171 1274 1441 1576 1671 1769 1800 1811 1887 1971 2065 2175 2320 2355 2631 2733 2409 2208 2134 2070 1971 1894 1823 1751 1673 1621 1544 1460 1456 1525 1590 1580 1529 1487 1452 1411 1378 1342 1317 1300 1295 1277 1243 1204 1174 1148 1134 1133 1128 1124 1100 1073 1073 1096 1096 1087 1067 1054 1035 1039 1034 1032 1029 1031 1036 1012 1002 1001 1000 985 991 996 1013 1021 1043 1057 1037 997 989
184 244 258 273 281 310 331 355 340 352 433 512 610 670 620 581 608 676 698 754 721 706 761 757 766 807 736 646 517 445 462 488 420 423 531 612 574 545 421 351 392 463 419 409 515 475 522 584 699 726 759 722 661 632 706 770 675 595 563 561 503 558 497 425 491 618 534 481 442 366 363 374 376 375 379 396 444 501 592 610 526 456 448 450 457 494 519 533 554 575 627 649 666 645 779 793 791 820 869 829 622 645 704 704 675 698 773 827 838 861 920 972 1035 1132 1243 1313 1291 1262 1459 1556 1662 1729 1791 1847 1902 1979 2082 2237 2436 2585 2668 2779 2446 2261 2137 2019 1935 1854 1796 1735 1677 1608 1520 1495 1554 1639 1655 1587 1536 1493 1475 1467 1413 1387 1358 1333 1329 1320 1302 1257 1210 1189 1175 1170 1173 1141 1115 1102 1103 1108 1090 1061 1093 1084 1047 1040 1040 1039 1037 1033 1030 1020 1013 1003 991 984 999 998 1008 1012 1009 1007 1005 994 995
300 373 417 382 353 397 552 582 544 515 480 539 631 682 719 679 700 805 884 846 757 657 688 714 691 722 742 654 553 452 397 373 430 347 375 406 382 391 395 331 351 409 497 593 669 670 698 730 652 728 890 913 886 700 707 808 899 709 566 446 363 339 338 349 403 376 350 347 360 376 391 432 402 383 421 528 553 678 879 809 652 562 547 581 620 596 566 572 564 548 534 555 562 596 606 676 780 814 851 961 906 852 790 832 909 1013 1094 1144 1171 1198 1253 1306 1324 1284 1375 1478 1551 1622 1589 1573 1595 1699 1827 1925 1954 1994 2075 2248 2535 2736 2696 2492 2349 2202 2082 1985 1902 1830 1773 1726 1690 1616 1528 1618 1664 1706 1676 1660 1638 1605 1606 1597 1525 1482 1490 1434 1381 1359 1326 1301 1270 1226 1198 1198 1178 1144 1135 1124 1114 1096 1067 1061 1075 1118 1082 1052 1049 1047 1041 1034 1029 1041 1033 995 971 975 1002 1002 1003 1004 1001 994 996 999 996
360 414 452 437 463 495 647 705 705 695 667 691 719 734 763 799 794 775 703 630 559 535 593 644 588 616 674 639 569 459 339 302 276 274 256 260 283 314 332 325 430 595 684 685 638 526 618 584 516 591 654 764 895 825 906 848 748 629 524 383 320 391 396 352 352 359 397 437 538 556 592 538 489 399 431 601 606 727 867 840 865 929 813 814 786 811 915 882 918 811 853 797 693 887 806 653 630 722 803 892 977 1053 1085 1091 1103 1135 1161 1185 1229 1275 1298 1356 1405 1431 1408 1448 1522 1619 1748 1819 1800 1750 1718 1807 1930 2009 2107 2246 2500 2783 2711 2461 2288 2131 2044 1969 1897 1821 1759 1738 1705 1650 1651 1695 1753 1749 1727 1732 1740 1761 1730 1694 1634 1586 1545 1483 1424 1391 1373 1336 1296 1251 1227 1199 1184 1165 1149 1118 1094 1077 1070 1070 1070 1090 1079 1064 1059 1055 1046 1039 1029 1019 1016 1006 969 999 1010 1013 1011 1007 1006 1003 1004 1001 999
409 374 376 391 371 356 443 540 568 599 645 621 605 673 718 770 760 696 628 555 457 448 548 585 498 463 549 490 472 386 267 275 293 317 320 325 276 279 342 352 398 491 434 449 425 431 450 452 610 739 689 661 748 765 851 702 608 513 407 338 448 600 611 550 529 572 605 607 733 887 996 907 703 533 441 537 589 674 778 890 1097 1253 1208 1247 1148 1058 935 1056 1202 1080 1195 1032 895 1167 1050 931 822 695 663 817 925 986 1022 1049 1049 1053 1066 1121 1225 1311 1354 1404 1477 1550 1581 1509 1525 1619 1688 1798 1950 1895 1772 1771 1860 1960 2089 2202 2322 2403 2439 2382 2241 2123 2050 1963 1835 1791 1805 1812 1749 1764 1759 1784 1822 1830 1815 1809 1807 1802 1764 1725 1694 1646 1564 1503 1469 1428 1377 1348 1311 1271 1238 1224 1211 1201 1177 1129 1098 1085 1083 1081 1073 1069 1076 1076 1072 1064 1051 1042 1031 1023 1025 1011 982 1013 1020 1025 1025 1023 1017 1013 1010 1008 1006
349 285 273 294 277 298 316 346 399 495 498 513 605 662 727 766 710 656 618 627 558 389 383 463 499 375 379 354 299 255 235 308 348 432 480 448 373 417 347 280 277 321 334 328 340 342 332 394 540 592 568 545 599 698 576 513 468 414 335 452 657 723 765 835 870 802 775 869 849 911 1084 935 788 657 534 561 669 799 950 1017 1076 1207 1345 1390 1384 1207 1255 1247 1190 1363 1357 1143 1093 1349 1251 1237 1178 925 771 701 876 876 849 819 958 1025 1072 1115 1225 1344 1392 1438 1503 1595 1709 1729 1582 1661 1765 1814 1993 2049 1887 1837 1823 1939 2027 2104 2191 2320 2304 2245 2166 2186 2140 2011 1930 1923 1893 1842 1807 1809 1836 1873 1873 1903 1894 1874 1865 1835 1782 1784 1743 1663 1590 1532 1497 1460 1418 1368 1341 1309 1271 1243 1238 1226 1196 1157 1116 1098 1098 1099 1091 1086 1087 1090 1083 1073 1059 1051 1040 1032 1021 1001 993 1027 1034 1038 1038 1033 1027 1024 1016 1014 1016
369 313 237 250 238 257 254 264 300 356 414 532 602 666 697 695 692 638 533 567 615 489 341 359 419 409 297 244 224 259 339 331 449 577 642 536 422 542 518 394 319 389 477 514 521 579 463 354 340 406 407 399 441 394 330 346 403 433 421 386 474 543 632 765 617 654 852 1069 1050 1189 1184 923 796 711 586 539 558 574 620 690 783 871 984 1048 1275 1318 1456 1401 1427 1413 1532 1325 1388 1519 1511 1355 1146 1002 860 685 748 870 941 890 868 996 1050 1120 1214 1350 1416 1456 1511 1596 1683 1759 1732 1730 1784 1891 1977 2039 1991 1915 1890 1948 2010 2061 2106 2240 2249 2305 2290 2335 2267 2182 2071 2017 1909 1883 1876 1864 1926 1969 1946 1978 1957 1937 1927 1907 1888 1883 1836 1804 1747 1663 1620 1583 1530 1425 1376 1329 1297 1285 1265 1223 1175 1143 1127 1116 1115 1116 1111 1105 1099 1093 1092 1083 1070 1061 1056 1050 1041 1026 1036 1046 1045 1045 1043 1039 1042 1035 1029 1025 1030
385 296 222 203 202 222 277 374 441 459 531 603 673 694 612 579 616 511 384 451 563 479 345 259 268 253 229 243 289 357 375 421 442 505 672 602 470 557 543 399 445 509 421 527 681 736 681 519 385 312 326 327 325 305 346 442 507 641 694 550 424 453 544 561 547 743 945 1213 1254 1291 1247 1089 1072 926 753 541 550 800 861 832 789 740 764 871 970 1129 1201 1270 1364 1399 1444 1409 1529 1613 1449 1358 1300 1023 899 775 687 823 940 1054 859 917 1049 1116 1221 1324 1435 1499 1561 1628 1694 1778 1838 1742 1752 1817 1837 1874 1884 1846 1864 1923 1963 2049 2192 2343 2476 2563 2514 2425 2314 2185 2084 2023 1958 1910 1963 1969 2049 2057 2018 2081 2055 2025 1960 1947 1954 1952 1919 1917 1890 1868 1819 1731 1698 1608 1475 1370 1350 1339 1297 1276 1257 1231 1192 1168 1143 1142 1134 1124 1114 1101 1090 1092 1090 1088 1077 1064 1048 1039 1061 1065 1059 1059 1052 1051 1053 1045 1039 1034 1036
